 -218.4654 ;   115.5231 ;   664.5736  ;    -0.9689 ;   -0.0377 ;    0.2444
 -218.4676 ;   115.6231 ;   664.5736  ;    -0.9707 ;   -0.0042 ;    0.2404
 -218.4661 ;   115.7231 ;   664.5737  ;    -0.9713 ;    0.0325 ;    0.2357
 -218.4606 ;   115.8229 ;   664.5737  ;    -0.9704 ;    0.0727 ;    0.2301
 -218.4509 ;   115.9224 ;   664.5737  ;    -0.9677 ;    0.1172 ;    0.2234
 -218.4417 ;   115.9885 ;   664.5737  ;    -0.9644 ;    0.1498 ;    0.2181
 -218.4303 ;   116.0542 ;   664.5738  ;    -0.9596 ;    0.1851 ;    0.2120
 -218.4163 ;   116.1194 ;   664.5738  ;    -0.9529 ;    0.2236 ;    0.2049
 -218.4041 ;   116.1678 ;   664.5738  ;    -0.9463 ;    0.2549 ;    0.1987
 -218.3902 ;   116.2159 ;   664.5738  ;    -0.9382 ;    0.2884 ;    0.1915
 -218.3746 ;   116.2634 ;   664.5738  ;    -0.9280 ;    0.3244 ;    0.1833
 -218.3571 ;   116.3102 ;   664.5738  ;    -0.9154 ;    0.3632 ;    0.1737
 -218.3444 ;   116.3410 ;   664.5738  ;    -0.9053 ;    0.3908 ;    0.1663
 -218.3306 ;   116.3714 ;   664.5739  ;    -0.8938 ;    0.4198 ;    0.1580
 -218.3159 ;   116.4013 ;   664.5739  ;    -0.8804 ;    0.4504 ;    0.1486
 -218.3042 ;   116.4234 ;   664.5739  ;    -0.8689 ;    0.4745 ;    0.1408
 -218.2919 ;   116.4452 ;   664.5739  ;    -0.8561 ;    0.4996 ;    0.1321
 -218.2789 ;   116.4666 ;   664.5739  ;    -0.8417 ;    0.5259 ;    0.1226
 -218.2653 ;   116.4875 ;   664.5739  ;    -0.8253 ;    0.5534 ;    0.1121
 -218.2540 ;   116.5040 ;   664.5739  ;    -0.8107 ;    0.5763 ;    0.1030
 -218.2422 ;   116.5202 ;   664.5739  ;    -0.7945 ;    0.6000 ;    0.0932
 -218.2300 ;   116.5360 ;   664.5739  ;    -0.7765 ;    0.6246 ;    0.0827
 -218.2173 ;   116.5515 ;   664.5739  ;    -0.7565 ;    0.6500 ;    0.0715
 -218.2041 ;   116.5665 ;   664.5739  ;    -0.7342 ;    0.6763 ;    0.0595
 -218.1927 ;   116.5787 ;   664.5739  ;    -0.7137 ;    0.6988 ;    0.0489
 -218.1810 ;   116.5906 ;   664.5739  ;    -0.6912 ;    0.7217 ;    0.0379
 -218.1689 ;   116.6020 ;   664.5739  ;    -0.6666 ;    0.7449 ;    0.0264
 -218.1564 ;   116.6131 ;   664.5739  ;    -0.6399 ;    0.7683 ;    0.0145
 -218.1435 ;   116.6236 ;   664.5739  ;    -0.6108 ;    0.7918 ;    0.0023
 -218.1302 ;   116.6337 ;   664.5740  ;    -0.5795 ;    0.8149 ;   -0.0102
 -218.1200 ;   116.6408 ;   664.5740  ;    -0.5545 ;    0.8320 ;   -0.0196
 -218.1095 ;   116.6477 ;   664.5740  ;    -0.5282 ;    0.8486 ;   -0.0292
 -218.0988 ;   116.6541 ;   664.5740  ;    -0.5009 ;    0.8647 ;   -0.0387
 -218.0879 ;   116.6603 ;   664.5740  ;    -0.4725 ;    0.8800 ;   -0.0483
 -218.0768 ;   116.6660 ;   664.5740  ;    -0.4431 ;    0.8946 ;   -0.0578
 -218.0656 ;   116.6714 ;   664.5740  ;    -0.4130 ;    0.9083 ;   -0.0671
 -218.0541 ;   116.6764 ;   664.5740  ;    -0.3822 ;    0.9209 ;   -0.0763
 -218.0425 ;   116.6811 ;   664.5740  ;    -0.3511 ;    0.9324 ;   -0.0854
 -218.0290 ;   116.6858 ;   664.5740  ;    -0.3152 ;    0.9442 ;   -0.0954
 -218.0154 ;   116.6900 ;   664.5740  ;    -0.2793 ;    0.9544 ;   -0.1051
 -218.0015 ;   116.6936 ;   664.5740  ;    -0.2438 ;    0.9631 ;   -0.1144
 -217.9876 ;   116.6967 ;   664.5740  ;    -0.2089 ;    0.9701 ;   -0.1233
 -217.9735 ;   116.6993 ;   664.5740  ;    -0.1749 ;    0.9757 ;   -0.1318
 -217.9594 ;   116.7014 ;   664.5740  ;    -0.1419 ;    0.9800 ;   -0.1398
 -217.9452 ;   116.7030 ;   664.5740  ;    -0.1101 ;    0.9829 ;   -0.1474
 -217.9286 ;   116.7044 ;   664.5740  ;    -0.0746 ;    0.9850 ;   -0.1557
 -217.9120 ;   116.7053 ;   664.5740  ;    -0.0408 ;    0.9857 ;   -0.1634
 -217.8953 ;   116.7055 ;   664.5740  ;    -0.0087 ;    0.9853 ;   -0.1705
 -217.8786 ;   116.7053 ;   664.5740  ;     0.0218 ;    0.9839 ;   -0.1772
 -217.8620 ;   116.7046 ;   664.5740  ;     0.0506 ;    0.9817 ;   -0.1833
 -217.8453 ;   116.7035 ;   664.5740  ;     0.0780 ;    0.9789 ;   -0.1890
 -217.8205 ;   116.7009 ;   664.5739  ;     0.1164 ;    0.9735 ;   -0.1967
 -217.7957 ;   116.6975 ;   664.5739  ;     0.1520 ;    0.9672 ;   -0.2035
 -217.7711 ;   116.6931 ;   664.5739  ;     0.1849 ;    0.9602 ;   -0.2095
 -217.7466 ;   116.6880 ;   664.5739  ;     0.2154 ;    0.9526 ;   -0.2149
 -217.7142 ;   116.6800 ;   664.5739  ;     0.2529 ;    0.9419 ;   -0.2211
 -217.6822 ;   116.6708 ;   664.5739  ;     0.2871 ;    0.9308 ;   -0.2264
 -217.6505 ;   116.6604 ;   664.5739  ;     0.3183 ;    0.9194 ;   -0.2310
 -217.6192 ;   116.6490 ;   664.5739  ;     0.3470 ;    0.9080 ;   -0.2349
 -217.5882 ;   116.6367 ;   664.5739  ;     0.3732 ;    0.8966 ;   -0.2384
 -217.5576 ;   116.6234 ;   664.5739  ;     0.3973 ;    0.8854 ;   -0.2414
 -217.5124 ;   116.6021 ;   664.5738  ;     0.4298 ;    0.8690 ;   -0.2452
 -217.4680 ;   116.5792 ;   664.5738  ;     0.4584 ;    0.8533 ;   -0.2484
 -217.4243 ;   116.5548 ;   664.5738  ;     0.4837 ;    0.8384 ;   -0.2512
 -217.3813 ;   116.5292 ;   664.5738  ;     0.5060 ;    0.8245 ;   -0.2535
 -217.2974 ;   116.4749 ;   664.5737  ;     0.5432 ;    0.7993 ;   -0.2571
 -217.2158 ;   116.4171 ;   664.5737  ;     0.5727 ;    0.7775 ;   -0.2598
 -217.1362 ;   116.3565 ;   664.5736  ;     0.5964 ;    0.7588 ;   -0.2619
 -217.0584 ;   116.2937 ;   664.5735  ;     0.6155 ;    0.7428 ;   -0.2634
 -216.9821 ;   116.2290 ;   664.5735  ;     0.6311 ;    0.7292 ;   -0.2645
 -216.9071 ;   116.1629 ;   664.5734  ;     0.6438 ;    0.7177 ;   -0.2653
 -216.7602 ;   116.0271 ;   664.5732  ;     0.6629 ;    0.6997 ;   -0.2664
 -216.6165 ;   115.8881 ;   664.5731  ;     0.6756 ;    0.6872 ;   -0.2669
 -216.4748 ;   115.7469 ;   664.5729  ;     0.6839 ;    0.6790 ;   -0.2670
 -216.3345 ;   115.6044 ;   664.5727  ;     0.6890 ;    0.6739 ;   -0.2668
 -216.1951 ;   115.4610 ;   664.5724  ;     0.6917 ;    0.6712 ;   -0.2664
 -216.0560 ;   115.3173 ;   664.5722  ;     0.6928 ;    0.6704 ;   -0.2658
 -215.9169 ;   115.1736 ;   664.5719  ;     0.6927 ;    0.6707 ;   -0.2652
 -215.7778 ;   115.0299 ;   664.5716  ;     0.6918 ;    0.6719 ;   -0.2644
 -215.6383 ;   114.8866 ;   664.5713  ;     0.6904 ;    0.6736 ;   -0.2638
 -215.4985 ;   114.7435 ;   664.5710  ;     0.6890 ;    0.6753 ;   -0.2631
 -215.3584 ;   114.6008 ;   664.5707  ;     0.6878 ;    0.6767 ;   -0.2625
 -215.2181 ;   114.4583 ;   664.5704  ;     0.6870 ;    0.6778 ;   -0.2621
 -215.0776 ;   114.3159 ;   664.5701  ;     0.6864 ;    0.6785 ;   -0.2617
 -214.9370 ;   114.1737 ;   664.5698  ;     0.6860 ;    0.6791 ;   -0.2614
 -214.7963 ;   114.0316 ;   664.5696  ;     0.6856 ;    0.6796 ;   -0.2612
 -214.6555 ;   113.8895 ;   664.5693  ;     0.6852 ;    0.6800 ;   -0.2609
 -214.5146 ;   113.7476 ;   664.5692  ;     0.6849 ;    0.6804 ;   -0.2607
 -214.3737 ;   113.6057 ;   664.5690  ;     0.6846 ;    0.6808 ;   -0.2604
 -214.2326 ;   113.4639 ;   664.5689  ;     0.6844 ;    0.6812 ;   -0.2601
 -214.0915 ;   113.3222 ;   664.5689  ;     0.6841 ;    0.6816 ;   -0.2597
 -213.9503 ;   113.1805 ;   664.5688  ;     0.6838 ;    0.6820 ;   -0.2594
 -213.8090 ;   113.0389 ;   664.5689  ;     0.6835 ;    0.6825 ;   -0.2591
 -213.6677 ;   112.8975 ;   664.5689  ;     0.6831 ;    0.6829 ;   -0.2588
 -213.5262 ;   112.7561 ;   664.5690  ;     0.6826 ;    0.6835 ;   -0.2585
 -213.3846 ;   112.6148 ;   664.5691  ;     0.6821 ;    0.6841 ;   -0.2582
 -213.2429 ;   112.4737 ;   664.5692  ;     0.6816 ;    0.6848 ;   -0.2580
 -213.1011 ;   112.3327 ;   664.5693  ;     0.6811 ;    0.6854 ;   -0.2577
 -212.9592 ;   112.1918 ;   664.5694  ;     0.6806 ;    0.6860 ;   -0.2574
 -212.8171 ;   112.0510 ;   664.5695  ;     0.6801 ;    0.6866 ;   -0.2571
 -212.6749 ;   111.9103 ;   664.5696  ;     0.6795 ;    0.6873 ;   -0.2569
 -212.5326 ;   111.7698 ;   664.5697  ;     0.6787 ;    0.6881 ;   -0.2566
 -212.3901 ;   111.6294 ;   664.5698  ;     0.6780 ;    0.6889 ;   -0.2563
 -212.2475 ;   111.4893 ;   664.5699  ;     0.6773 ;    0.6898 ;   -0.2560
 -212.1047 ;   111.3492 ;   664.5699  ;     0.6765 ;    0.6906 ;   -0.2558
 -211.9617 ;   111.2093 ;   664.5699  ;     0.6758 ;    0.6914 ;   -0.2555
 -211.8186 ;   111.0696 ;   664.5699  ;     0.6750 ;    0.6923 ;   -0.2552
 -211.6753 ;   110.9301 ;   664.5699  ;     0.6742 ;    0.6931 ;   -0.2549
 -211.5319 ;   110.7907 ;   664.5699  ;     0.6733 ;    0.6941 ;   -0.2547
 -211.3883 ;   110.6516 ;   664.5698  ;     0.6723 ;    0.6952 ;   -0.2544
 -211.2444 ;   110.5126 ;   664.5697  ;     0.6713 ;    0.6963 ;   -0.2541
 -211.1003 ;   110.3739 ;   664.5696  ;     0.6703 ;    0.6974 ;   -0.2538
 -210.9561 ;   110.2354 ;   664.5695  ;     0.6692 ;    0.6985 ;   -0.2535
 -210.8116 ;   110.0971 ;   664.5694  ;     0.6683 ;    0.6995 ;   -0.2533
 -210.6669 ;   109.9590 ;   664.5692  ;     0.6675 ;    0.7003 ;   -0.2530
 -210.5221 ;   109.8211 ;   664.5691  ;     0.6668 ;    0.7011 ;   -0.2527
 -210.3771 ;   109.6833 ;   664.5689  ;     0.6661 ;    0.7018 ;   -0.2525
 -210.2320 ;   109.5456 ;   664.5687  ;     0.6656 ;    0.7024 ;   -0.2522
 -210.0868 ;   109.4081 ;   664.5685  ;     0.6652 ;    0.7029 ;   -0.2520
 -209.9416 ;   109.2706 ;   664.5683  ;     0.6650 ;    0.7032 ;   -0.2517
 -209.7963 ;   109.1332 ;   664.5681  ;     0.6650 ;    0.7033 ;   -0.2514
 -209.6510 ;   108.9957 ;   664.5679  ;     0.6651 ;    0.7033 ;   -0.2512
 -209.5058 ;   108.8582 ;   664.5677  ;     0.6653 ;    0.7031 ;   -0.2509
 -209.3606 ;   108.7207 ;   664.5674  ;     0.6658 ;    0.7028 ;   -0.2507
 -209.2154 ;   108.5830 ;   664.5672  ;     0.6663 ;    0.7024 ;   -0.2504
 -209.0704 ;   108.4453 ;   664.5670  ;     0.6668 ;    0.7020 ;   -0.2502
 -208.9255 ;   108.3075 ;   664.5668  ;     0.6673 ;    0.7016 ;   -0.2499
 -208.7807 ;   108.1696 ;   664.5667  ;     0.6678 ;    0.7012 ;   -0.2497
 -208.6359 ;   108.0315 ;   664.5665  ;     0.6682 ;    0.7009 ;   -0.2494
 -208.4912 ;   107.8935 ;   664.5663  ;     0.6685 ;    0.7007 ;   -0.2492
 -208.3465 ;   107.7554 ;   664.5662  ;     0.6686 ;    0.7007 ;   -0.2489
 -208.2019 ;   107.6173 ;   664.5660  ;     0.6686 ;    0.7008 ;   -0.2487
 -208.0572 ;   107.4792 ;   664.5659  ;     0.6684 ;    0.7010 ;   -0.2484
 -207.9124 ;   107.3412 ;   664.5657  ;     0.6682 ;    0.7013 ;   -0.2482
 -207.7676 ;   107.2032 ;   664.5656  ;     0.6680 ;    0.7016 ;   -0.2479
 -207.6228 ;   107.0653 ;   664.5655  ;     0.6677 ;    0.7020 ;   -0.2477
 -207.4778 ;   106.9275 ;   664.5654  ;     0.6673 ;    0.7025 ;   -0.2475
 -207.3328 ;   106.7898 ;   664.5652  ;     0.6669 ;    0.7029 ;   -0.2472
 -207.1877 ;   106.6522 ;   664.5651  ;     0.6667 ;    0.7033 ;   -0.2470
 -207.0425 ;   106.5146 ;   664.5650  ;     0.6664 ;    0.7036 ;   -0.2467
 -206.8973 ;   106.3771 ;   664.5649  ;     0.6659 ;    0.7041 ;   -0.2465
 -206.7520 ;   106.2397 ;   664.5648  ;     0.6654 ;    0.7047 ;   -0.2462
 -206.6065 ;   106.1024 ;   664.5647  ;     0.6649 ;    0.7053 ;   -0.2460
 -206.4610 ;   105.9653 ;   664.5646  ;     0.6646 ;    0.7056 ;   -0.2457
 -206.3154 ;   105.8281 ;   664.5644  ;     0.6645 ;    0.7058 ;   -0.2455
 -206.1698 ;   105.6910 ;   664.5643  ;     0.6643 ;    0.7061 ;   -0.2452
 -206.0241 ;   105.5540 ;   664.5642  ;     0.6642 ;    0.7063 ;   -0.2450
 -205.8784 ;   105.4170 ;   664.5641  ;     0.6639 ;    0.7066 ;   -0.2448
 -205.7326 ;   105.2800 ;   664.5640  ;     0.6637 ;    0.7069 ;   -0.2445
 -205.5868 ;   105.1431 ;   664.5639  ;     0.6635 ;    0.7072 ;   -0.2443
 -205.4410 ;   105.0063 ;   664.5637  ;     0.6634 ;    0.7073 ;   -0.2440
 -205.2951 ;   104.8694 ;   664.5636  ;     0.6635 ;    0.7073 ;   -0.2438
 -205.1493 ;   104.7326 ;   664.5635  ;     0.6636 ;    0.7073 ;   -0.2436
 -205.0034 ;   104.5957 ;   664.5634  ;     0.6636 ;    0.7074 ;   -0.2433
 -204.8576 ;   104.4589 ;   664.5633  ;     0.6636 ;    0.7075 ;   -0.2431
 -204.7118 ;   104.3220 ;   664.5631  ;     0.6637 ;    0.7074 ;   -0.2429
 -204.5659 ;   104.1851 ;   664.5630  ;     0.6640 ;    0.7073 ;   -0.2426
 -204.4202 ;   104.0482 ;   664.5629  ;     0.6642 ;    0.7071 ;   -0.2424
 -204.2744 ;   103.9112 ;   664.5628  ;     0.6644 ;    0.7070 ;   -0.2422
 -204.1287 ;   103.7742 ;   664.5627  ;     0.6645 ;    0.7071 ;   -0.2419
 -203.9830 ;   103.6373 ;   664.5625  ;     0.6645 ;    0.7072 ;   -0.2417
 -203.8372 ;   103.5003 ;   664.5624  ;     0.6645 ;    0.7072 ;   -0.2415
 -203.6915 ;   103.3633 ;   664.5623  ;     0.6646 ;    0.7072 ;   -0.2412
 -203.5458 ;   103.2263 ;   664.5622  ;     0.6646 ;    0.7072 ;   -0.2410
 -203.4001 ;   103.0893 ;   664.5621  ;     0.6644 ;    0.7075 ;   -0.2408
 -203.2543 ;   102.9524 ;   664.5619  ;     0.6641 ;    0.7078 ;   -0.2405
 -203.1084 ;   102.8156 ;   664.5618  ;     0.6639 ;    0.7082 ;   -0.2403
 -202.9625 ;   102.6788 ;   664.5617  ;     0.6638 ;    0.7084 ;   -0.2401
 -202.8166 ;   102.5421 ;   664.5616  ;     0.6637 ;    0.7085 ;   -0.2398
 -202.6706 ;   102.4053 ;   664.5615  ;     0.6634 ;    0.7088 ;   -0.2396
 -202.5246 ;   102.2687 ;   664.5614  ;     0.6630 ;    0.7093 ;   -0.2394
 -202.3784 ;   102.1322 ;   664.5612  ;     0.6625 ;    0.7099 ;   -0.2391
 -202.2322 ;   101.9957 ;   664.5611  ;     0.6620 ;    0.7104 ;   -0.2389
 -202.0858 ;   101.8594 ;   664.5610  ;     0.6616 ;    0.7108 ;   -0.2387
 -201.9394 ;   101.7232 ;   664.5609  ;     0.6614 ;    0.7111 ;   -0.2385
 -201.7929 ;   101.5870 ;   664.5608  ;     0.6612 ;    0.7114 ;   -0.2382
 -201.6464 ;   101.4508 ;   664.5606  ;     0.6609 ;    0.7117 ;   -0.2380
 -201.4999 ;   101.3147 ;   664.5605  ;     0.6605 ;    0.7122 ;   -0.2378
 -201.3532 ;   101.1788 ;   664.5604  ;     0.6601 ;    0.7126 ;   -0.2376
 -201.2065 ;   101.0429 ;   664.5603  ;     0.6599 ;    0.7129 ;   -0.2373
 -201.0597 ;   100.9070 ;   664.5602  ;     0.6598 ;    0.7130 ;   -0.2371
 -200.9129 ;   100.7711 ;   664.5601  ;     0.6597 ;    0.7132 ;   -0.2369
 -200.7661 ;   100.6353 ;   664.5599  ;     0.6595 ;    0.7135 ;   -0.2367
 -200.6192 ;   100.4996 ;   664.5598  ;     0.6590 ;    0.7140 ;   -0.2364
 -200.4722 ;   100.3640 ;   664.5597  ;     0.6585 ;    0.7145 ;   -0.2362
 -200.3251 ;   100.2285 ;   664.5596  ;     0.6582 ;    0.7149 ;   -0.2360
 -200.1780 ;   100.0930 ;   664.5595  ;     0.6579 ;    0.7152 ;   -0.2358
 -200.0308 ;    99.9576 ;   664.5593  ;     0.6577 ;    0.7155 ;   -0.2356
 -199.8835 ;    99.8223 ;   664.5592  ;     0.6573 ;    0.7159 ;   -0.2353
 -199.7362 ;    99.6871 ;   664.5591  ;     0.6569 ;    0.7164 ;   -0.2351
 -199.5887 ;    99.5519 ;   664.5590  ;     0.6564 ;    0.7169 ;   -0.2349
 -199.4412 ;    99.4169 ;   664.5589  ;     0.6559 ;    0.7175 ;   -0.2347
 -199.2935 ;    99.2820 ;   664.5588  ;     0.6555 ;    0.7179 ;   -0.2345
 -199.1458 ;    99.1472 ;   664.5586  ;     0.6551 ;    0.7183 ;   -0.2342
 -198.9980 ;    99.0124 ;   664.5585  ;     0.6546 ;    0.7189 ;   -0.2340
 -198.8501 ;    98.8778 ;   664.5584  ;     0.6540 ;    0.7195 ;   -0.2338
 -198.7020 ;    98.7434 ;   664.5583  ;     0.6533 ;    0.7202 ;   -0.2336
 -198.5539 ;    98.6090 ;   664.5582  ;     0.6528 ;    0.7207 ;   -0.2334
 -198.4056 ;    98.4748 ;   664.5581  ;     0.6523 ;    0.7212 ;   -0.2331
 -198.2572 ;    98.3407 ;   664.5579  ;     0.6518 ;    0.7218 ;   -0.2329
 -198.1088 ;    98.2067 ;   664.5578  ;     0.6511 ;    0.7224 ;   -0.2327
 -197.9601 ;    98.0728 ;   664.5577  ;     0.6503 ;    0.7232 ;   -0.2325
 -197.8114 ;    97.9392 ;   664.5576  ;     0.6497 ;    0.7238 ;   -0.2323
 -197.6625 ;    97.8056 ;   664.5575  ;     0.6493 ;    0.7243 ;   -0.2321
 -197.5136 ;    97.6721 ;   664.5574  ;     0.6489 ;    0.7247 ;   -0.2319
 -197.3646 ;    97.5387 ;   664.5572  ;     0.6484 ;    0.7252 ;   -0.2316
 -197.2154 ;    97.4055 ;   664.5571  ;     0.6477 ;    0.7259 ;   -0.2314
 -197.0661 ;    97.2724 ;   664.5570  ;     0.6470 ;    0.7266 ;   -0.2312
 -196.9167 ;    97.1394 ;   664.5569  ;     0.6463 ;    0.7273 ;   -0.2310
 -196.7672 ;    97.0066 ;   664.5568  ;     0.6460 ;    0.7277 ;   -0.2308
 -196.6176 ;    96.8738 ;   664.5567  ;     0.6458 ;    0.7278 ;   -0.2306
 -196.4681 ;    96.7411 ;   664.5565  ;     0.6459 ;    0.7279 ;   -0.2304
 -196.3185 ;    96.6083 ;   664.5564  ;     0.6458 ;    0.7280 ;   -0.2301
 -196.1689 ;    96.4756 ;   664.5563  ;     0.6456 ;    0.7282 ;   -0.2299
 -196.0192 ;    96.3429 ;   664.5562  ;     0.6452 ;    0.7287 ;   -0.2297
 -195.8694 ;    96.2104 ;   664.5561  ;     0.6448 ;    0.7291 ;   -0.2295
 -195.7196 ;    96.0779 ;   664.5560  ;     0.6445 ;    0.7294 ;   -0.2293
 -195.5697 ;    95.9454 ;   664.5558  ;     0.6444 ;    0.7295 ;   -0.2291
 -195.4198 ;    95.8130 ;   664.5557  ;     0.6443 ;    0.7297 ;   -0.2289
 -195.2699 ;    95.6807 ;   664.5556  ;     0.6440 ;    0.7300 ;   -0.2287
 -195.1199 ;    95.5484 ;   664.5555  ;     0.6436 ;    0.7305 ;   -0.2285
 -194.9698 ;    95.4162 ;   664.5554  ;     0.6432 ;    0.7309 ;   -0.2283
 -194.8197 ;    95.2841 ;   664.5553  ;     0.6430 ;    0.7311 ;   -0.2281
 -194.6695 ;    95.1520 ;   664.5551  ;     0.6429 ;    0.7312 ;   -0.2278
 -194.5193 ;    95.0199 ;   664.5550  ;     0.6427 ;    0.7316 ;   -0.2276
 -194.3690 ;    94.8879 ;   664.5549  ;     0.6420 ;    0.7322 ;   -0.2274
 -194.2186 ;    94.7561 ;   664.5548  ;     0.6413 ;    0.7329 ;   -0.2272
 -194.0680 ;    94.6245 ;   664.5547  ;     0.6408 ;    0.7334 ;   -0.2270
 -193.9174 ;    94.4929 ;   664.5546  ;     0.6406 ;    0.7336 ;   -0.2268
 -193.7668 ;    94.3613 ;   664.5545  ;     0.6407 ;    0.7336 ;   -0.2266
 -193.6162 ;    94.2297 ;   664.5543  ;     0.6406 ;    0.7337 ;   -0.2264
 -193.4655 ;    94.0982 ;   664.5542  ;     0.6401 ;    0.7342 ;   -0.2262
 -193.3147 ;    93.9668 ;   664.5541  ;     0.6395 ;    0.7349 ;   -0.2260
 -193.1638 ;    93.8356 ;   664.5540  ;     0.6390 ;    0.7354 ;   -0.2258
 -193.0128 ;    93.7044 ;   664.5539  ;     0.6388 ;    0.7355 ;   -0.2256
 -192.8619 ;    93.5732 ;   664.5538  ;     0.6391 ;    0.7354 ;   -0.2254
 -192.7109 ;    93.4420 ;   664.5536  ;     0.6394 ;    0.7352 ;   -0.2252
 -192.5601 ;    93.3107 ;   664.5535  ;     0.6395 ;    0.7351 ;   -0.2250
 -192.4092 ;    93.1794 ;   664.5534  ;     0.6394 ;    0.7353 ;   -0.2248
 -192.2583 ;    93.0482 ;   664.5533  ;     0.6393 ;    0.7355 ;   -0.2246
 -192.1073 ;    92.9170 ;   664.5532  ;     0.6392 ;    0.7356 ;   -0.2244
 -191.9564 ;    92.7858 ;   664.5531  ;     0.6391 ;    0.7357 ;   -0.2241
 -191.8054 ;    92.6546 ;   664.5530  ;     0.6391 ;    0.7358 ;   -0.2239
 -191.6544 ;    92.5235 ;   664.5528  ;     0.6388 ;    0.7361 ;   -0.2237
 -191.5033 ;    92.3924 ;   664.5527  ;     0.6385 ;    0.7364 ;   -0.2235
 -191.3522 ;    92.2614 ;   664.5526  ;     0.6384 ;    0.7366 ;   -0.2233
 -191.2011 ;    92.1304 ;   664.5525  ;     0.6384 ;    0.7367 ;   -0.2231
 -191.0500 ;    91.9994 ;   664.5524  ;     0.6384 ;    0.7367 ;   -0.2229
 -190.8988 ;    91.8684 ;   664.5523  ;     0.6383 ;    0.7369 ;   -0.2227
 -190.7476 ;    91.7375 ;   664.5521  ;     0.6379 ;    0.7373 ;   -0.2225
 -190.5964 ;    91.6066 ;   664.5520  ;     0.6374 ;    0.7378 ;   -0.2223
 -190.4450 ;    91.4759 ;   664.5519  ;     0.6372 ;    0.7380 ;   -0.2221
 -190.2936 ;    91.3452 ;   664.5518  ;     0.6372 ;    0.7381 ;   -0.2219
 -190.1423 ;    91.2145 ;   664.5517  ;     0.6371 ;    0.7382 ;   -0.2217
 -189.9909 ;    91.0838 ;   664.5516  ;     0.6368 ;    0.7385 ;   -0.2215
 -189.8393 ;    90.9532 ;   664.5515  ;     0.6362 ;    0.7391 ;   -0.2213
 -189.6877 ;    90.8228 ;   664.5513  ;     0.6357 ;    0.7396 ;   -0.2211
 -189.5360 ;    90.6925 ;   664.5512  ;     0.6357 ;    0.7396 ;   -0.2209
 -189.3844 ;    90.5620 ;   664.5511  ;     0.6361 ;    0.7394 ;   -0.2207
 -189.2328 ;    90.4315 ;   664.5510  ;     0.6364 ;    0.7392 ;   -0.2205
 -189.0813 ;    90.3010 ;   664.5509  ;     0.6363 ;    0.7393 ;   -0.2203
 -188.9297 ;    90.1706 ;   664.5508  ;     0.6359 ;    0.7397 ;   -0.2201
 -188.7780 ;    90.0402 ;   664.5507  ;     0.6355 ;    0.7401 ;   -0.2199
 -188.6263 ;    89.9099 ;   664.5505  ;     0.6354 ;    0.7403 ;   -0.2197
 -188.4745 ;    89.7797 ;   664.5504  ;     0.6356 ;    0.7402 ;   -0.2195
 -188.3229 ;    89.6493 ;   664.5503  ;     0.6361 ;    0.7398 ;   -0.2193
 -188.1713 ;    89.5188 ;   664.5502  ;     0.6365 ;    0.7395 ;   -0.2191
 -188.0197 ;    89.3883 ;   664.5501  ;     0.6367 ;    0.7394 ;   -0.2189
 -187.8682 ;    89.2578 ;   664.5500  ;     0.6368 ;    0.7393 ;   -0.2187
 -187.7167 ;    89.1272 ;   664.5499  ;     0.6371 ;    0.7392 ;   -0.2185
 -187.5652 ;    88.9966 ;   664.5497  ;     0.6374 ;    0.7389 ;   -0.2183
 -187.4138 ;    88.8659 ;   664.5496  ;     0.6377 ;    0.7387 ;   -0.2181
 -187.2625 ;    88.7352 ;   664.5495  ;     0.6379 ;    0.7386 ;   -0.2179
 -187.1111 ;    88.6044 ;   664.5494  ;     0.6380 ;    0.7386 ;   -0.2177
 -186.9598 ;    88.4737 ;   664.5493  ;     0.6381 ;    0.7386 ;   -0.2175
 -186.8085 ;    88.3429 ;   664.5492  ;     0.6381 ;    0.7386 ;   -0.2173
 -186.6572 ;    88.2121 ;   664.5490  ;     0.6381 ;    0.7387 ;   -0.2171
 -186.5058 ;    88.0814 ;   664.5489  ;     0.6380 ;    0.7389 ;   -0.2169
 -186.3544 ;    87.9507 ;   664.5488  ;     0.6377 ;    0.7392 ;   -0.2167
 -186.2030 ;    87.8200 ;   664.5487  ;     0.6375 ;    0.7394 ;   -0.2165
 -186.0515 ;    87.6894 ;   664.5486  ;     0.6374 ;    0.7395 ;   -0.2163
 -185.9001 ;    87.5588 ;   664.5485  ;     0.6374 ;    0.7396 ;   -0.2161
 -185.7486 ;    87.4283 ;   664.5484  ;     0.6374 ;    0.7397 ;   -0.2159
 -185.5971 ;    87.2977 ;   664.5482  ;     0.6372 ;    0.7399 ;   -0.2157
 -185.4455 ;    87.1672 ;   664.5481  ;     0.6369 ;    0.7402 ;   -0.2155
 -185.2939 ;    87.0368 ;   664.5480  ;     0.6366 ;    0.7405 ;   -0.2153
 -185.1422 ;    86.9064 ;   664.5479  ;     0.6364 ;    0.7407 ;   -0.2151
 -184.9905 ;    86.7760 ;   664.5478  ;     0.6365 ;    0.7407 ;   -0.2149
 -184.8389 ;    86.6457 ;   664.5477  ;     0.6366 ;    0.7407 ;   -0.2147
 -184.6872 ;    86.5153 ;   664.5476  ;     0.6367 ;    0.7406 ;   -0.2145
 -184.5356 ;    86.3849 ;   664.5474  ;     0.6367 ;    0.7408 ;   -0.2143
 -184.3839 ;    86.2545 ;   664.5473  ;     0.6365 ;    0.7410 ;   -0.2141
 -184.2322 ;    86.1242 ;   664.5472  ;     0.6365 ;    0.7410 ;   -0.2139
 -184.0805 ;    85.9938 ;   664.5471  ;     0.6368 ;    0.7408 ;   -0.2137
 -183.9289 ;    85.8634 ;   664.5470  ;     0.6373 ;    0.7404 ;   -0.2135
 -183.7774 ;    85.7329 ;   664.5469  ;     0.6376 ;    0.7402 ;   -0.2133
 -183.6259 ;    85.6023 ;   664.5468  ;     0.6375 ;    0.7404 ;   -0.2131
 -183.4743 ;    85.4719 ;   664.5466  ;     0.6368 ;    0.7411 ;   -0.2129
 -183.3225 ;    85.3416 ;   664.5465  ;     0.6357 ;    0.7421 ;   -0.2127
 -183.1705 ;    85.2116 ;   664.5464  ;     0.6344 ;    0.7432 ;   -0.2125
 -183.0183 ;    85.0818 ;   664.5463  ;     0.6334 ;    0.7441 ;   -0.2123
 -182.8660 ;    84.9523 ;   664.5462  ;     0.6327 ;    0.7447 ;   -0.2121
 -182.7135 ;    84.8228 ;   664.5461  ;     0.6324 ;    0.7451 ;   -0.2119
 -182.5610 ;    84.6934 ;   664.5460  ;     0.6321 ;    0.7454 ;   -0.2117
 -182.4085 ;    84.5640 ;   664.5458  ;     0.6318 ;    0.7457 ;   -0.2115
 -182.2558 ;    84.4348 ;   664.5457  ;     0.6311 ;    0.7464 ;   -0.2113
 -182.1031 ;    84.3058 ;   664.5456  ;     0.6300 ;    0.7473 ;   -0.2111
 -181.9501 ;    84.1770 ;   664.5455  ;     0.6289 ;    0.7483 ;   -0.2109
 -181.7969 ;    84.0484 ;   664.5454  ;     0.6279 ;    0.7492 ;   -0.2107
 -181.6435 ;    83.9200 ;   664.5453  ;     0.6272 ;    0.7499 ;   -0.2105
 -181.4901 ;    83.7917 ;   664.5452  ;     0.6269 ;    0.7502 ;   -0.2103
 -181.3366 ;    83.6634 ;   664.5450  ;     0.6269 ;    0.7502 ;   -0.2101
 -181.1832 ;    83.5352 ;   664.5449  ;     0.6270 ;    0.7502 ;   -0.2099
 -181.0297 ;    83.4069 ;   664.5448  ;     0.6269 ;    0.7504 ;   -0.2097
 -180.8762 ;    83.2787 ;   664.5447  ;     0.6267 ;    0.7505 ;   -0.2095
 -180.7228 ;    83.1504 ;   664.5446  ;     0.6270 ;    0.7504 ;   -0.2093
 -180.5693 ;    83.0221 ;   664.5445  ;     0.6277 ;    0.7498 ;   -0.2091
 -180.4161 ;    82.8936 ;   664.5444  ;     0.6288 ;    0.7490 ;   -0.2089
 -180.2630 ;    82.7649 ;   664.5442  ;     0.6298 ;    0.7482 ;   -0.2087
 -180.1101 ;    82.6360 ;   664.5441  ;     0.6304 ;    0.7478 ;   -0.2085
 -179.9572 ;    82.5071 ;   664.5440  ;     0.6303 ;    0.7479 ;   -0.2083
 -179.8042 ;    82.3782 ;   664.5439  ;     0.6297 ;    0.7484 ;   -0.2081
 -179.6512 ;    82.2495 ;   664.5438  ;     0.6293 ;    0.7488 ;   -0.2079
 -179.4981 ;    82.1208 ;   664.5437  ;     0.6294 ;    0.7488 ;   -0.2077
 -179.3450 ;    81.9920 ;   664.5436  ;     0.6301 ;    0.7483 ;   -0.2075
 -179.1921 ;    81.8631 ;   664.5435  ;     0.6310 ;    0.7476 ;   -0.2073
 -179.0394 ;    81.7340 ;   664.5433  ;     0.6314 ;    0.7473 ;   -0.2071
 -178.8866 ;    81.6050 ;   664.5432  ;     0.6310 ;    0.7477 ;   -0.2069
 -178.7337 ;    81.4761 ;   664.5431  ;     0.6300 ;    0.7486 ;   -0.2067
 -178.5806 ;    81.3474 ;   664.5430  ;     0.6287 ;    0.7497 ;   -0.2065
 -178.4272 ;    81.2190 ;   664.5429  ;     0.6276 ;    0.7507 ;   -0.2063
 -178.2737 ;    81.0908 ;   664.5428  ;     0.6269 ;    0.7514 ;   -0.2061
 -178.1201 ;    80.9627 ;   664.5427  ;     0.6264 ;    0.7518 ;   -0.2059
 -177.9664 ;    80.8347 ;   664.5425  ;     0.6259 ;    0.7523 ;   -0.2057
 -177.8127 ;    80.7068 ;   664.5424  ;     0.6254 ;    0.7528 ;   -0.2055
 -177.6588 ;    80.5791 ;   664.5423  ;     0.6247 ;    0.7534 ;   -0.2053
 -177.5048 ;    80.4515 ;   664.5422  ;     0.6239 ;    0.7541 ;   -0.2051
 -177.3506 ;    80.3240 ;   664.5421  ;     0.6232 ;    0.7547 ;   -0.2049
 -177.1964 ;    80.1967 ;   664.5420  ;     0.6229 ;    0.7551 ;   -0.2047
 -177.0421 ;    80.0695 ;   664.5419  ;     0.6229 ;    0.7551 ;   -0.2045
 -176.8878 ;    79.9422 ;   664.5418  ;     0.6232 ;    0.7550 ;   -0.2043
 -176.7336 ;    79.8148 ;   664.5416  ;     0.6233 ;    0.7549 ;   -0.2040
 -176.5794 ;    79.6874 ;   664.5415  ;     0.6233 ;    0.7550 ;   -0.2038
 -176.4252 ;    79.5601 ;   664.5414  ;     0.6230 ;    0.7552 ;   -0.2036
 -176.2709 ;    79.4328 ;   664.5413  ;     0.6229 ;    0.7554 ;   -0.2034
 -176.1166 ;    79.3056 ;   664.5412  ;     0.6230 ;    0.7554 ;   -0.2032
 -175.9624 ;    79.1783 ;   664.5411  ;     0.6232 ;    0.7552 ;   -0.2030
 -175.8081 ;    79.0509 ;   664.5410  ;     0.6235 ;    0.7550 ;   -0.2028
 -175.6540 ;    78.9235 ;   664.5409  ;     0.6238 ;    0.7549 ;   -0.2026
 -175.4998 ;    78.7961 ;   664.5407  ;     0.6239 ;    0.7548 ;   -0.2024
 -175.3457 ;    78.6687 ;   664.5406  ;     0.6237 ;    0.7550 ;   -0.2022
 -175.1915 ;    78.5413 ;   664.5405  ;     0.6234 ;    0.7554 ;   -0.2020
 -175.0372 ;    78.4140 ;   664.5404  ;     0.6232 ;    0.7556 ;   -0.2018
 -174.8829 ;    78.2868 ;   664.5403  ;     0.6232 ;    0.7556 ;   -0.2016
 -174.7287 ;    78.1595 ;   664.5402  ;     0.6235 ;    0.7555 ;   -0.2014
 -174.5744 ;    78.0321 ;   664.5401  ;     0.6238 ;    0.7552 ;   -0.2012
 -174.4203 ;    77.9047 ;   664.5399  ;     0.6239 ;    0.7552 ;   -0.2010
 -174.2661 ;    77.7774 ;   664.5398  ;     0.6236 ;    0.7555 ;   -0.2007
 -174.1118 ;    77.6501 ;   664.5397  ;     0.6230 ;    0.7561 ;   -0.2005
 -173.9574 ;    77.5229 ;   664.5396  ;     0.6223 ;    0.7567 ;   -0.2003
 -173.8029 ;    77.3959 ;   664.5395  ;     0.6221 ;    0.7569 ;   -0.2001
 -173.6484 ;    77.2689 ;   664.5394  ;     0.6224 ;    0.7567 ;   -0.1999
 -173.4940 ;    77.1418 ;   664.5393  ;     0.6230 ;    0.7563 ;   -0.1997
 -173.3397 ;    77.0145 ;   664.5392  ;     0.6235 ;    0.7559 ;   -0.1995
 -173.1855 ;    76.8872 ;   664.5390  ;     0.6236 ;    0.7559 ;   -0.1993
 -173.0312 ;    76.7600 ;   664.5389  ;     0.6233 ;    0.7562 ;   -0.1991
 -172.8768 ;    76.6328 ;   664.5388  ;     0.6228 ;    0.7567 ;   -0.1989
 -172.7224 ;    76.5058 ;   664.5387  ;     0.6224 ;    0.7571 ;   -0.1987
 -172.5679 ;    76.3788 ;   664.5386  ;     0.6221 ;    0.7574 ;   -0.1984
 -172.4133 ;    76.2518 ;   664.5385  ;     0.6220 ;    0.7575 ;   -0.1982
 -172.2588 ;    76.1249 ;   664.5384  ;     0.6220 ;    0.7576 ;   -0.1980
 -172.1042 ;    75.9980 ;   664.5383  ;     0.6219 ;    0.7577 ;   -0.1978
 -171.9496 ;    75.8711 ;   664.5381  ;     0.6215 ;    0.7581 ;   -0.1976
 -171.7949 ;    75.7443 ;   664.5380  ;     0.6211 ;    0.7585 ;   -0.1974
 -171.6401 ;    75.6176 ;   664.5379  ;     0.6208 ;    0.7588 ;   -0.1972
 -171.4853 ;    75.4910 ;   664.5378  ;     0.6206 ;    0.7590 ;   -0.1970
 -171.3305 ;    75.3644 ;   664.5377  ;     0.6206 ;    0.7591 ;   -0.1967
 -171.1757 ;    75.2378 ;   664.5376  ;     0.6204 ;    0.7592 ;   -0.1965
 -171.0208 ;    75.1113 ;   664.5375  ;     0.6201 ;    0.7595 ;   -0.1963
 -170.8659 ;    74.9848 ;   664.5374  ;     0.6197 ;    0.7599 ;   -0.1961
 -170.7108 ;    74.8584 ;   664.5372  ;     0.6192 ;    0.7604 ;   -0.1959
 -170.5557 ;    74.7322 ;   664.5371  ;     0.6187 ;    0.7609 ;   -0.1957
 -170.4005 ;    74.6060 ;   664.5370  ;     0.6184 ;    0.7612 ;   -0.1955
 -170.2453 ;    74.4799 ;   664.5369  ;     0.6183 ;    0.7613 ;   -0.1952
 -170.0901 ;    74.3538 ;   664.5368  ;     0.6184 ;    0.7613 ;   -0.1950
 -169.9349 ;    74.2277 ;   664.5367  ;     0.6185 ;    0.7612 ;   -0.1948
 -169.7797 ;    74.1015 ;   664.5366  ;     0.6187 ;    0.7612 ;   -0.1946
 -169.6245 ;    73.9753 ;   664.5365  ;     0.6188 ;    0.7611 ;   -0.1944
 -169.4693 ;    73.8492 ;   664.5364  ;     0.6189 ;    0.7611 ;   -0.1942
 -169.3142 ;    73.7229 ;   664.5362  ;     0.6192 ;    0.7609 ;   -0.1940
 -169.1591 ;    73.5967 ;   664.5361  ;     0.6195 ;    0.7607 ;   -0.1937
 -169.0040 ;    73.4703 ;   664.5360  ;     0.6198 ;    0.7605 ;   -0.1935
 -168.8491 ;    73.3439 ;   664.5359  ;     0.6203 ;    0.7602 ;   -0.1933
 -168.6941 ;    73.2174 ;   664.5358  ;     0.6207 ;    0.7599 ;   -0.1931
 -168.5393 ;    73.0908 ;   664.5357  ;     0.6212 ;    0.7596 ;   -0.1929
 -168.3845 ;    72.9641 ;   664.5356  ;     0.6218 ;    0.7591 ;   -0.1927
 -168.2299 ;    72.8373 ;   664.5355  ;     0.6225 ;    0.7586 ;   -0.1924
 -168.0753 ;    72.7104 ;   664.5353  ;     0.6229 ;    0.7584 ;   -0.1922
 -167.9208 ;    72.5834 ;   664.5352  ;     0.6228 ;    0.7585 ;   -0.1920
 -167.7662 ;    72.4565 ;   664.5351  ;     0.6224 ;    0.7589 ;   -0.1918
 -167.6115 ;    72.3298 ;   664.5350  ;     0.6219 ;    0.7593 ;   -0.1916
 -167.4568 ;    72.2031 ;   664.5349  ;     0.6217 ;    0.7596 ;   -0.1913
 -167.3020 ;    72.0764 ;   664.5348  ;     0.6218 ;    0.7595 ;   -0.1911
 -167.1473 ;    71.9496 ;   664.5347  ;     0.6222 ;    0.7592 ;   -0.1909
 -166.9927 ;    71.8228 ;   664.5346  ;     0.6226 ;    0.7590 ;   -0.1907
 -166.8381 ;    71.6959 ;   664.5344  ;     0.6225 ;    0.7591 ;   -0.1905
 -166.6834 ;    71.5691 ;   664.5343  ;     0.6217 ;    0.7598 ;   -0.1902
 -166.5285 ;    71.4426 ;   664.5342  ;     0.6205 ;    0.7608 ;   -0.1900
 -166.3734 ;    71.3163 ;   664.5341  ;     0.6193 ;    0.7619 ;   -0.1898
 -166.2182 ;    71.1902 ;   664.5340  ;     0.6183 ;    0.7627 ;   -0.1896
 -166.0627 ;    71.0643 ;   664.5339  ;     0.6177 ;    0.7632 ;   -0.1894
 -165.9073 ;    70.9385 ;   664.5338  ;     0.6174 ;    0.7636 ;   -0.1891
 -165.7517 ;    70.8128 ;   664.5337  ;     0.6169 ;    0.7640 ;   -0.1889
 -165.5961 ;    70.6872 ;   664.5335  ;     0.6163 ;    0.7646 ;   -0.1887
 -165.4403 ;    70.5618 ;   664.5334  ;     0.6155 ;    0.7652 ;   -0.1885
 -165.2844 ;    70.4365 ;   664.5333  ;     0.6149 ;    0.7658 ;   -0.1882
 -165.1285 ;    70.3113 ;   664.5332  ;     0.6147 ;    0.7661 ;   -0.1880
 -164.9725 ;    70.1861 ;   664.5331  ;     0.6147 ;    0.7661 ;   -0.1878
 -164.8165 ;    70.0609 ;   664.5330  ;     0.6149 ;    0.7660 ;   -0.1876
 -164.6606 ;    69.9357 ;   664.5329  ;     0.6150 ;    0.7659 ;   -0.1873
 -164.5046 ;    69.8104 ;   664.5328  ;     0.6150 ;    0.7660 ;   -0.1871
 -164.3487 ;    69.6852 ;   664.5327  ;     0.6149 ;    0.7661 ;   -0.1869
 -164.1927 ;    69.5600 ;   664.5325  ;     0.6151 ;    0.7660 ;   -0.1867
 -164.0369 ;    69.4347 ;   664.5324  ;     0.6158 ;    0.7655 ;   -0.1864
 -163.8811 ;    69.3092 ;   664.5323  ;     0.6168 ;    0.7647 ;   -0.1862
 -163.7255 ;    69.1835 ;   664.5322  ;     0.6178 ;    0.7640 ;   -0.1860
 -163.5701 ;    69.0577 ;   664.5321  ;     0.6184 ;    0.7636 ;   -0.1858
 -163.4147 ;    68.9318 ;   664.5320  ;     0.6187 ;    0.7634 ;   -0.1855
 -163.2594 ;    68.8058 ;   664.5319  ;     0.6188 ;    0.7633 ;   -0.1853
 -163.1040 ;    68.6798 ;   664.5318  ;     0.6190 ;    0.7633 ;   -0.1851
 -162.9487 ;    68.5538 ;   664.5317  ;     0.6191 ;    0.7632 ;   -0.1849
 -162.7934 ;    68.4278 ;   664.5315  ;     0.6193 ;    0.7632 ;   -0.1846
 -162.6381 ;    68.3018 ;   664.5314  ;     0.6192 ;    0.7633 ;   -0.1844
 -162.4828 ;    68.1758 ;   664.5313  ;     0.6190 ;    0.7635 ;   -0.1842
 -162.3274 ;    68.0498 ;   664.5312  ;     0.6186 ;    0.7638 ;   -0.1839
 -162.1720 ;    67.9240 ;   664.5311  ;     0.6184 ;    0.7641 ;   -0.1837
 -162.0165 ;    67.7982 ;   664.5310  ;     0.6185 ;    0.7641 ;   -0.1835
 -161.8611 ;    67.6723 ;   664.5309  ;     0.6188 ;    0.7639 ;   -0.1833
 -161.7057 ;    67.5463 ;   664.5308  ;     0.6191 ;    0.7637 ;   -0.1830
 -161.5504 ;    67.4204 ;   664.5306  ;     0.6190 ;    0.7639 ;   -0.1828
 -161.3950 ;    67.2945 ;   664.5305  ;     0.6183 ;    0.7644 ;   -0.1826
 -161.2394 ;    67.1688 ;   664.5304  ;     0.6174 ;    0.7652 ;   -0.1823
 -161.0837 ;    67.0433 ;   664.5303  ;     0.6167 ;    0.7659 ;   -0.1821
 -160.9279 ;    66.9179 ;   664.5302  ;     0.6165 ;    0.7660 ;   -0.1819
 -160.7721 ;    66.7925 ;   664.5301  ;     0.6169 ;    0.7658 ;   -0.1816
 -160.6164 ;    66.6669 ;   664.5300  ;     0.6174 ;    0.7655 ;   -0.1814
 -160.4608 ;    66.5413 ;   664.5299  ;     0.6174 ;    0.7655 ;   -0.1812
 -160.3051 ;    66.4158 ;   664.5298  ;     0.6168 ;    0.7660 ;   -0.1809
 -160.1492 ;    66.2905 ;   664.5296  ;     0.6158 ;    0.7669 ;   -0.1807
 -159.9932 ;    66.1653 ;   664.5295  ;     0.6150 ;    0.7676 ;   -0.1805
 -159.8371 ;    66.0403 ;   664.5294  ;     0.6147 ;    0.7679 ;   -0.1802
 -159.6810 ;    65.9153 ;   664.5293  ;     0.6150 ;    0.7677 ;   -0.1800
 -159.5249 ;    65.7902 ;   664.5292  ;     0.6153 ;    0.7676 ;   -0.1798
 -159.3689 ;    65.6651 ;   664.5291  ;     0.6152 ;    0.7677 ;   -0.1795
 -159.2128 ;    65.5401 ;   664.5290  ;     0.6145 ;    0.7683 ;   -0.1793
 -159.0565 ;    65.4152 ;   664.5289  ;     0.6136 ;    0.7691 ;   -0.1791
 -158.9001 ;    65.2906 ;   664.5288  ;     0.6129 ;    0.7697 ;   -0.1788
 -158.7437 ;    65.1660 ;   664.5286  ;     0.6129 ;    0.7697 ;   -0.1786
 -158.5872 ;    65.0414 ;   664.5285  ;     0.6135 ;    0.7693 ;   -0.1784
 -158.4310 ;    64.9165 ;   664.5284  ;     0.6144 ;    0.7687 ;   -0.1781
 -158.2748 ;    64.7916 ;   664.5283  ;     0.6148 ;    0.7684 ;   -0.1779
 -158.1186 ;    64.6666 ;   664.5282  ;     0.6145 ;    0.7686 ;   -0.1776
 -157.9624 ;    64.5418 ;   664.5281  ;     0.6139 ;    0.7692 ;   -0.1774
 -157.8060 ;    64.4171 ;   664.5280  ;     0.6134 ;    0.7697 ;   -0.1772
 -157.6496 ;    64.2924 ;   664.5279  ;     0.6133 ;    0.7698 ;   -0.1769
 -157.4932 ;    64.1678 ;   664.5278  ;     0.6138 ;    0.7695 ;   -0.1767
 -157.3370 ;    64.0430 ;   664.5276  ;     0.6146 ;    0.7688 ;   -0.1765
 -157.1808 ;    63.9180 ;   664.5275  ;     0.6156 ;    0.7681 ;   -0.1762
 -157.0248 ;    63.7928 ;   664.5274  ;     0.6163 ;    0.7676 ;   -0.1760
 -156.8689 ;    63.6675 ;   664.5273  ;     0.6165 ;    0.7675 ;   -0.1757
 -156.7130 ;    63.5423 ;   664.5272  ;     0.6163 ;    0.7677 ;   -0.1755
 -156.5570 ;    63.4171 ;   664.5271  ;     0.6160 ;    0.7680 ;   -0.1753
 -156.4010 ;    63.2920 ;   664.5270  ;     0.6158 ;    0.7682 ;   -0.1750
 -156.2450 ;    63.1669 ;   664.5269  ;     0.6160 ;    0.7681 ;   -0.1748
 -156.0890 ;    63.0417 ;   664.5268  ;     0.6164 ;    0.7679 ;   -0.1745
 -155.9331 ;    62.9164 ;   664.5266  ;     0.6166 ;    0.7678 ;   -0.1743
 -155.7771 ;    62.7912 ;   664.5265  ;     0.6164 ;    0.7679 ;   -0.1741
 -155.6211 ;    62.6660 ;   664.5264  ;     0.6162 ;    0.7682 ;   -0.1738
 -155.4651 ;    62.5409 ;   664.5263  ;     0.6160 ;    0.7684 ;   -0.1736
 -155.3091 ;    62.4158 ;   664.5262  ;     0.6159 ;    0.7686 ;   -0.1733
 -155.1530 ;    62.2908 ;   664.5261  ;     0.6156 ;    0.7688 ;   -0.1731
 -154.9968 ;    62.1658 ;   664.5260  ;     0.6149 ;    0.7695 ;   -0.1728
 -154.8405 ;    62.0410 ;   664.5259  ;     0.6137 ;    0.7704 ;   -0.1726
 -154.6840 ;    61.9165 ;   664.5257  ;     0.6126 ;    0.7714 ;   -0.1723
 -154.5273 ;    61.7922 ;   664.5256  ;     0.6118 ;    0.7720 ;   -0.1721
 -154.3705 ;    61.6680 ;   664.5255  ;     0.6115 ;    0.7724 ;   -0.1719
 -154.2137 ;    61.5439 ;   664.5254  ;     0.6113 ;    0.7726 ;   -0.1716
 -154.0569 ;    61.4198 ;   664.5253  ;     0.6111 ;    0.7728 ;   -0.1714
 -153.9000 ;    61.2958 ;   664.5252  ;     0.6108 ;    0.7730 ;   -0.1711
 -153.7431 ;    61.1718 ;   664.5251  ;     0.6106 ;    0.7733 ;   -0.1709
 -153.5861 ;    61.0478 ;   664.5250  ;     0.6105 ;    0.7734 ;   -0.1706
 -153.4291 ;    60.9239 ;   664.5249  ;     0.6107 ;    0.7733 ;   -0.1704
 -153.2722 ;    60.7999 ;   664.5248  ;     0.6109 ;    0.7732 ;   -0.1701
 -153.1153 ;    60.6759 ;   664.5246  ;     0.6112 ;    0.7731 ;   -0.1699
 -152.9584 ;    60.5518 ;   664.5245  ;     0.6113 ;    0.7730 ;   -0.1696
 -152.8016 ;    60.4277 ;   664.5244  ;     0.6114 ;    0.7730 ;   -0.1694
 -152.6448 ;    60.3036 ;   664.5243  ;     0.6116 ;    0.7729 ;   -0.1691
 -152.4879 ;    60.1795 ;   664.5242  ;     0.6119 ;    0.7727 ;   -0.1689
 -152.3312 ;    60.0552 ;   664.5241  ;     0.6125 ;    0.7723 ;   -0.1687
 -152.1746 ;    59.9309 ;   664.5240  ;     0.6131 ;    0.7719 ;   -0.1684
 -152.0180 ;    59.8064 ;   664.5239  ;     0.6135 ;    0.7716 ;   -0.1682
 -151.8615 ;    59.6819 ;   664.5238  ;     0.6137 ;    0.7715 ;   -0.1679
 -151.7050 ;    59.5574 ;   664.5236  ;     0.6135 ;    0.7717 ;   -0.1677
 -151.5484 ;    59.4330 ;   664.5235  ;     0.6129 ;    0.7722 ;   -0.1674
 -151.3917 ;    59.3087 ;   664.5234  ;     0.6123 ;    0.7727 ;   -0.1672
 -151.2349 ;    59.1845 ;   664.5233  ;     0.6120 ;    0.7731 ;   -0.1669
 -151.0781 ;    59.0604 ;   664.5232  ;     0.6121 ;    0.7730 ;   -0.1667
 -150.9213 ;    58.9362 ;   664.5231  ;     0.6125 ;    0.7728 ;   -0.1664
 -150.7647 ;    58.8119 ;   664.5230  ;     0.6128 ;    0.7725 ;   -0.1662
 -150.6080 ;    58.6876 ;   664.5229  ;     0.6128 ;    0.7726 ;   -0.1659
 -150.4513 ;    58.5633 ;   664.5228  ;     0.6124 ;    0.7730 ;   -0.1657
 -150.2945 ;    58.4392 ;   664.5226  ;     0.6117 ;    0.7736 ;   -0.1654
 -150.1375 ;    58.3152 ;   664.5225  ;     0.6110 ;    0.7742 ;   -0.1651
 -149.9805 ;    58.1913 ;   664.5224  ;     0.6105 ;    0.7747 ;   -0.1649
 -149.8234 ;    58.0676 ;   664.5223  ;     0.6101 ;    0.7750 ;   -0.1646
 -149.6662 ;    57.9439 ;   664.5222  ;     0.6098 ;    0.7753 ;   -0.1644
 -149.5090 ;    57.8202 ;   664.5221  ;     0.6097 ;    0.7755 ;   -0.1641
 -149.3518 ;    57.6966 ;   664.5220  ;     0.6095 ;    0.7756 ;   -0.1639
 -149.1945 ;    57.5730 ;   664.5219  ;     0.6094 ;    0.7758 ;   -0.1636
 -149.0373 ;    57.4495 ;   664.5218  ;     0.6092 ;    0.7760 ;   -0.1634
 -148.8800 ;    57.3260 ;   664.5217  ;     0.6091 ;    0.7762 ;   -0.1631
 -148.7226 ;    57.2025 ;   664.5215  ;     0.6090 ;    0.7762 ;   -0.1629
 -148.5653 ;    57.0791 ;   664.5214  ;     0.6091 ;    0.7762 ;   -0.1626
 -148.4080 ;    56.9556 ;   664.5213  ;     0.6091 ;    0.7763 ;   -0.1623
 -148.2506 ;    56.8321 ;   664.5212  ;     0.6087 ;    0.7766 ;   -0.1621
 -148.0931 ;    56.7088 ;   664.5211  ;     0.6080 ;    0.7773 ;   -0.1618
 -147.9356 ;    56.5857 ;   664.5210  ;     0.6072 ;    0.7780 ;   -0.1616
 -147.7778 ;    56.4627 ;   664.5209  ;     0.6065 ;    0.7785 ;   -0.1613
 -147.6201 ;    56.3398 ;   664.5208  ;     0.6063 ;    0.7787 ;   -0.1611
 -147.4623 ;    56.2169 ;   664.5207  ;     0.6063 ;    0.7788 ;   -0.1608
 -147.3045 ;    56.0940 ;   664.5206  ;     0.6063 ;    0.7789 ;   -0.1605
 -147.1466 ;    55.9712 ;   664.5204  ;     0.6061 ;    0.7791 ;   -0.1603
 -146.9888 ;    55.8484 ;   664.5203  ;     0.6058 ;    0.7793 ;   -0.1600
 -146.8309 ;    55.7256 ;   664.5202  ;     0.6057 ;    0.7795 ;   -0.1598
 -146.6729 ;    55.6029 ;   664.5201  ;     0.6058 ;    0.7794 ;   -0.1595
 -146.5151 ;    55.4801 ;   664.5200  ;     0.6061 ;    0.7793 ;   -0.1593
 -146.3572 ;    55.3573 ;   664.5199  ;     0.6064 ;    0.7791 ;   -0.1590
 -146.1994 ;    55.2344 ;   664.5198  ;     0.6069 ;    0.7788 ;   -0.1587
 -146.0417 ;    55.1114 ;   664.5197  ;     0.6075 ;    0.7784 ;   -0.1585
 -145.8841 ;    54.9883 ;   664.5196  ;     0.6082 ;    0.7779 ;   -0.1582
 -145.7266 ;    54.8650 ;   664.5195  ;     0.6087 ;    0.7775 ;   -0.1580
 -145.5692 ;    54.7416 ;   664.5193  ;     0.6091 ;    0.7772 ;   -0.1577
 -145.4118 ;    54.6182 ;   664.5192  ;     0.6095 ;    0.7770 ;   -0.1574
 -145.2545 ;    54.4947 ;   664.5191  ;     0.6101 ;    0.7766 ;   -0.1572
 -145.0973 ;    54.3711 ;   664.5190  ;     0.6109 ;    0.7760 ;   -0.1569
 -144.9402 ;    54.2473 ;   664.5189  ;     0.6115 ;    0.7756 ;   -0.1567
 -144.7832 ;    54.1234 ;   664.5188  ;     0.6117 ;    0.7755 ;   -0.1564
 -144.6262 ;    53.9996 ;   664.5187  ;     0.6114 ;    0.7757 ;   -0.1561
 -144.4691 ;    53.8758 ;   664.5186  ;     0.6110 ;    0.7761 ;   -0.1559
 -144.3119 ;    53.7521 ;   664.5185  ;     0.6107 ;    0.7764 ;   -0.1556
 -144.1547 ;    53.6285 ;   664.5184  ;     0.6105 ;    0.7767 ;   -0.1554
 -143.9974 ;    53.5049 ;   664.5182  ;     0.6103 ;    0.7769 ;   -0.1551
 -143.8402 ;    53.3814 ;   664.5181  ;     0.6099 ;    0.7772 ;   -0.1548
 -143.6828 ;    53.2579 ;   664.5180  ;     0.6094 ;    0.7776 ;   -0.1546
 -143.5253 ;    53.1346 ;   664.5179  ;     0.6088 ;    0.7782 ;   -0.1543
 -143.3678 ;    53.0114 ;   664.5178  ;     0.6082 ;    0.7787 ;   -0.1540
 -143.2101 ;    52.8884 ;   664.5177  ;     0.6076 ;    0.7792 ;   -0.1538
 -143.0523 ;    52.7654 ;   664.5176  ;     0.6071 ;    0.7797 ;   -0.1535
 -142.8945 ;    52.6426 ;   664.5175  ;     0.6068 ;    0.7800 ;   -0.1532
 -142.7367 ;    52.5198 ;   664.5174  ;     0.6066 ;    0.7801 ;   -0.1530
 -142.5788 ;    52.3970 ;   664.5173  ;     0.6065 ;    0.7803 ;   -0.1527
 -142.4209 ;    52.2743 ;   664.5171  ;     0.6064 ;    0.7804 ;   -0.1524
 -142.2629 ;    52.1516 ;   664.5170  ;     0.6062 ;    0.7806 ;   -0.1522
 -142.1050 ;    52.0289 ;   664.5169  ;     0.6059 ;    0.7809 ;   -0.1519
 -141.9469 ;    51.9063 ;   664.5168  ;     0.6057 ;    0.7811 ;   -0.1516
 -141.7889 ;    51.7838 ;   664.5167  ;     0.6057 ;    0.7811 ;   -0.1514
 -141.6309 ;    51.6612 ;   664.5166  ;     0.6062 ;    0.7808 ;   -0.1511
 -141.4730 ;    51.5384 ;   664.5165  ;     0.6069 ;    0.7803 ;   -0.1508
 -141.3152 ;    51.4156 ;   664.5164  ;     0.6076 ;    0.7798 ;   -0.1506
 -141.1575 ;    51.2926 ;   664.5163  ;     0.6082 ;    0.7794 ;   -0.1503
 -140.9998 ;    51.1695 ;   664.5162  ;     0.6087 ;    0.7791 ;   -0.1500
 -140.8423 ;    51.0463 ;   664.5160  ;     0.6092 ;    0.7787 ;   -0.1498
 -140.6848 ;    50.9230 ;   664.5159  ;     0.6096 ;    0.7785 ;   -0.1495
 -140.5274 ;    50.7996 ;   664.5158  ;     0.6098 ;    0.7784 ;   -0.1492
 -140.3699 ;    50.6763 ;   664.5157  ;     0.6099 ;    0.7783 ;   -0.1490
 -140.2125 ;    50.5529 ;   664.5156  ;     0.6100 ;    0.7783 ;   -0.1487
 -140.0551 ;    50.4295 ;   664.5155  ;     0.6099 ;    0.7784 ;   -0.1484
 -139.8977 ;    50.3062 ;   664.5154  ;     0.6094 ;    0.7789 ;   -0.1482
 -139.7401 ;    50.1830 ;   664.5153  ;     0.6085 ;    0.7796 ;   -0.1479
 -139.5824 ;    50.0600 ;   664.5152  ;     0.6077 ;    0.7804 ;   -0.1476
 -139.4245 ;    49.9372 ;   664.5151  ;     0.6072 ;    0.7808 ;   -0.1474
 -139.2666 ;    49.8144 ;   664.5149  ;     0.6070 ;    0.7810 ;   -0.1471
 -139.1087 ;    49.6917 ;   664.5148  ;     0.6069 ;    0.7811 ;   -0.1468
 -138.9508 ;    49.5690 ;   664.5147  ;     0.6067 ;    0.7813 ;   -0.1465
 -138.7928 ;    49.4463 ;   664.5146  ;     0.6063 ;    0.7817 ;   -0.1463
 -138.6348 ;    49.3238 ;   664.5145  ;     0.6057 ;    0.7822 ;   -0.1460
 -138.4766 ;    49.2014 ;   664.5144  ;     0.6052 ;    0.7826 ;   -0.1457
 -138.3184 ;    49.0791 ;   664.5143  ;     0.6048 ;    0.7830 ;   -0.1455
 -138.1601 ;    48.9568 ;   664.5142  ;     0.6048 ;    0.7830 ;   -0.1452
 -138.0018 ;    48.8345 ;   664.5141  ;     0.6049 ;    0.7830 ;   -0.1449
 -137.8436 ;    48.7123 ;   664.5140  ;     0.6048 ;    0.7831 ;   -0.1446
 -137.6852 ;    48.5900 ;   664.5138  ;     0.6045 ;    0.7834 ;   -0.1444
 -137.5269 ;    48.4679 ;   664.5137  ;     0.6041 ;    0.7837 ;   -0.1441
 -137.3685 ;    48.3458 ;   664.5136  ;     0.6037 ;    0.7841 ;   -0.1438
 -137.2100 ;    48.2238 ;   664.5135  ;     0.6033 ;    0.7845 ;   -0.1435
 -137.0514 ;    48.1020 ;   664.5134  ;     0.6028 ;    0.7849 ;   -0.1433
 -136.8927 ;    47.9802 ;   664.5133  ;     0.6023 ;    0.7854 ;   -0.1430
 -136.7340 ;    47.8585 ;   664.5132  ;     0.6017 ;    0.7859 ;   -0.1427
 -136.5752 ;    47.7370 ;   664.5131  ;     0.6013 ;    0.7862 ;   -0.1424
 -136.4163 ;    47.6155 ;   664.5130  ;     0.6009 ;    0.7866 ;   -0.1422
 -136.2573 ;    47.4942 ;   664.5129  ;     0.6002 ;    0.7872 ;   -0.1419
 -136.0982 ;    47.3729 ;   664.5128  ;     0.5995 ;    0.7877 ;   -0.1416
 -135.9390 ;    47.2519 ;   664.5126  ;     0.5992 ;    0.7880 ;   -0.1413
 -135.7798 ;    47.1308 ;   664.5125  ;     0.5995 ;    0.7879 ;   -0.1411
 -135.6207 ;    47.0096 ;   664.5124  ;     0.6000 ;    0.7875 ;   -0.1408
 -135.4617 ;    46.8883 ;   664.5123  ;     0.6005 ;    0.7872 ;   -0.1405
 -135.3027 ;    46.7670 ;   664.5122  ;     0.6006 ;    0.7871 ;   -0.1402
 -135.1437 ;    46.6457 ;   664.5121  ;     0.6006 ;    0.7872 ;   -0.1400
 -134.9847 ;    46.5243 ;   664.5120  ;     0.6007 ;    0.7872 ;   -0.1397
 -134.8258 ;    46.4030 ;   664.5119  ;     0.6010 ;    0.7870 ;   -0.1394
 -134.6668 ;    46.2816 ;   664.5118  ;     0.6012 ;    0.7869 ;   -0.1391
 -134.5079 ;    46.1601 ;   664.5117  ;     0.6015 ;    0.7867 ;   -0.1389
 -134.3491 ;    46.0386 ;   664.5116  ;     0.6017 ;    0.7866 ;   -0.1386
 -134.1902 ;    45.9170 ;   664.5115  ;     0.6019 ;    0.7865 ;   -0.1383
 -134.0314 ;    45.7955 ;   664.5113  ;     0.6021 ;    0.7864 ;   -0.1380
 -133.8727 ;    45.6738 ;   664.5112  ;     0.6024 ;    0.7862 ;   -0.1377
 -133.7139 ;    45.5522 ;   664.5111  ;     0.6026 ;    0.7861 ;   -0.1375
 -133.5552 ;    45.4305 ;   664.5110  ;     0.6028 ;    0.7860 ;   -0.1372
 -133.3966 ;    45.3087 ;   664.5109  ;     0.6029 ;    0.7860 ;   -0.1369
 -133.2379 ;    45.1870 ;   664.5108  ;     0.6030 ;    0.7860 ;   -0.1366
 -133.0792 ;    45.0652 ;   664.5107  ;     0.6030 ;    0.7860 ;   -0.1363
 -132.9205 ;    44.9435 ;   664.5106  ;     0.6028 ;    0.7862 ;   -0.1361
 -132.7618 ;    44.8218 ;   664.5105  ;     0.6025 ;    0.7865 ;   -0.1358
 -132.6030 ;    44.7002 ;   664.5104  ;     0.6020 ;    0.7869 ;   -0.1355
 -132.4441 ;    44.5788 ;   664.5103  ;     0.6014 ;    0.7874 ;   -0.1352
 -132.2851 ;    44.4574 ;   664.5101  ;     0.6009 ;    0.7879 ;   -0.1349
 -132.1261 ;    44.3362 ;   664.5100  ;     0.6004 ;    0.7882 ;   -0.1347
 -131.9670 ;    44.2150 ;   664.5099  ;     0.6001 ;    0.7886 ;   -0.1344
 -131.8078 ;    44.0939 ;   664.5098  ;     0.5998 ;    0.7889 ;   -0.1341
 -131.6485 ;    43.9729 ;   664.5097  ;     0.5993 ;    0.7893 ;   -0.1338
 -131.4892 ;    43.8520 ;   664.5096  ;     0.5987 ;    0.7897 ;   -0.1335
 -131.3298 ;    43.7312 ;   664.5095  ;     0.5982 ;    0.7902 ;   -0.1332
 -131.1703 ;    43.6105 ;   664.5094  ;     0.5979 ;    0.7904 ;   -0.1330
 -131.0108 ;    43.4898 ;   664.5093  ;     0.5978 ;    0.7906 ;   -0.1327
 -130.8513 ;    43.3692 ;   664.5092  ;     0.5977 ;    0.7907 ;   -0.1324
 -130.6918 ;    43.2486 ;   664.5091  ;     0.5977 ;    0.7908 ;   -0.1321
 -130.5322 ;    43.1280 ;   664.5089  ;     0.5978 ;    0.7907 ;   -0.1318
 -130.3727 ;    43.0074 ;   664.5088  ;     0.5981 ;    0.7906 ;   -0.1315
 -130.2132 ;    42.8867 ;   664.5087  ;     0.5983 ;    0.7904 ;   -0.1313
 -130.0538 ;    42.7659 ;   664.5086  ;     0.5985 ;    0.7903 ;   -0.1310
