  -89.1139 ;    41.6661 ;   855.8030  ;     0.8190 ;    0.4681 ;   -0.3318
  -89.2133 ;    41.8396 ;   855.8032  ;     0.8178 ;    0.4700 ;   -0.3322
  -89.3130 ;    42.0130 ;   855.8033  ;     0.8176 ;    0.4700 ;   -0.3326
  -89.4125 ;    42.1865 ;   855.8035  ;     0.8186 ;    0.4680 ;   -0.3330
  -89.5115 ;    42.3603 ;   855.8036  ;     0.8192 ;    0.4666 ;   -0.3334
  -89.6104 ;    42.5341 ;   855.8038  ;     0.8192 ;    0.4664 ;   -0.3338
  -89.7093 ;    42.7079 ;   855.8039  ;     0.8192 ;    0.4660 ;   -0.3342
  -89.8081 ;    42.8818 ;   855.8040  ;     0.8191 ;    0.4660 ;   -0.3346
  -89.9071 ;    43.0556 ;   855.8042  ;     0.8187 ;    0.4664 ;   -0.3350
  -90.0060 ;    43.2294 ;   855.8043  ;     0.8187 ;    0.4662 ;   -0.3354
  -90.1049 ;    43.4033 ;   855.8045  ;     0.8187 ;    0.4658 ;   -0.3358
  -90.2037 ;    43.5772 ;   855.8046  ;     0.8192 ;    0.4647 ;   -0.3362
  -90.3021 ;    43.7513 ;   855.8047  ;     0.8205 ;    0.4621 ;   -0.3366
  -90.3999 ;    43.9257 ;   855.8049  ;     0.8219 ;    0.4593 ;   -0.3370
  -90.4972 ;    44.1005 ;   855.8050  ;     0.8230 ;    0.4571 ;   -0.3374
  -90.5941 ;    44.2755 ;   855.8052  ;     0.8241 ;    0.4548 ;   -0.3378
  -90.6904 ;    44.4507 ;   855.8053  ;     0.8245 ;    0.4537 ;   -0.3382
  -90.7869 ;    44.6259 ;   855.8054  ;     0.8240 ;    0.4543 ;   -0.3385
  -90.8835 ;    44.8010 ;   855.8056  ;     0.8238 ;    0.4543 ;   -0.3389
  -90.9801 ;    44.9762 ;   855.8057  ;     0.8229 ;    0.4558 ;   -0.3393
  -91.0773 ;    45.1510 ;   855.8059  ;     0.8213 ;    0.4583 ;   -0.3397
  -91.1748 ;    45.3255 ;   855.8060  ;     0.8205 ;    0.4594 ;   -0.3401
  -91.2726 ;    45.5000 ;   855.8062  ;     0.8197 ;    0.4605 ;   -0.3406
  -91.3707 ;    45.6743 ;   855.8063  ;     0.8185 ;    0.4624 ;   -0.3410
  -91.4692 ;    45.8484 ;   855.8064  ;     0.8179 ;    0.4632 ;   -0.3412
  -91.5676 ;    46.0225 ;   855.8066  ;     0.8190 ;    0.4612 ;   -0.3413
  -91.6652 ;    46.1971 ;   855.8067  ;     0.8215 ;    0.4563 ;   -0.3418
  -91.7615 ;    46.3724 ;   855.8069  ;     0.8252 ;    0.4487 ;   -0.3431
  -91.8559 ;    46.5487 ;   855.8070  ;     0.8310 ;    0.4370 ;   -0.3441
  -91.9473 ;    46.7266 ;   855.8071  ;     0.8403 ;    0.4205 ;   -0.3421
  -92.0346 ;    46.9065 ;   855.8073  ;     0.8512 ;    0.4015 ;   -0.3381
  -92.1178 ;    47.0884 ;   855.8074  ;     0.8593 ;    0.3821 ;   -0.3399
  -92.1969 ;    47.2721 ;   855.8076  ;     0.8642 ;    0.3586 ;   -0.3530
  -92.2709 ;    47.4579 ;   855.8077  ;     0.8691 ;    0.3293 ;   -0.3691
  -92.3387 ;    47.6460 ;   855.8079  ;     0.8742 ;    0.3007 ;   -0.3812
  -92.4012 ;    47.8360 ;   855.8080  ;     0.8776 ;    0.2770 ;   -0.3912
  -92.4590 ;    48.0275 ;   855.8082  ;     0.8802 ;    0.2538 ;   -0.4010
  -92.5117 ;    48.2204 ;   855.8083  ;     0.8831 ;    0.2268 ;   -0.4108
  -92.5585 ;    48.4149 ;   855.8085  ;     0.8847 ;    0.1996 ;   -0.4212
  -92.6002 ;    48.6105 ;   855.8086  ;     0.8829 ;    0.1828 ;   -0.4326
  -92.6401 ;    48.8065 ;   855.8088  ;     0.8774 ;    0.1792 ;   -0.4449
  -92.6799 ;    49.0025 ;   855.8089  ;     0.8711 ;    0.1776 ;   -0.4578
  -92.7184 ;    49.1987 ;   855.8091  ;     0.8676 ;    0.1566 ;   -0.4720
  -92.7351 ;    49.2973 ;   855.8091  ;     0.8669 ;    0.1353 ;   -0.4798
  -92.7490 ;    49.3964 ;   855.8092  ;     0.8659 ;    0.1097 ;   -0.4880
  -92.7594 ;    49.4958 ;   855.8093  ;     0.8641 ;    0.0832 ;   -0.4965
  -92.7669 ;    49.5956 ;   855.8094  ;     0.8613 ;    0.0555 ;   -0.5051
  -92.7720 ;    49.6955 ;   855.8094  ;     0.8575 ;    0.0249 ;   -0.5139
  -92.7729 ;    49.7954 ;   855.8095  ;     0.8524 ;   -0.0138 ;   -0.5227
  -92.7704 ;    49.8621 ;   855.8096  ;     0.8478 ;   -0.0448 ;   -0.5284
  -92.7653 ;    49.9286 ;   855.8096  ;     0.8421 ;   -0.0789 ;   -0.5336
  -92.7573 ;    49.9947 ;   855.8097  ;     0.8345 ;   -0.1176 ;   -0.5382
  -92.7509 ;    50.0342 ;   855.8097  ;     0.8286 ;   -0.1447 ;   -0.5408
  -92.7431 ;    50.0735 ;   855.8097  ;     0.8212 ;   -0.1758 ;   -0.5429
  -92.7339 ;    50.1124 ;   855.8097  ;     0.8117 ;   -0.2111 ;   -0.5446
  -92.7231 ;    50.1510 ;   855.8098  ;     0.8000 ;   -0.2502 ;   -0.5454
  -92.7106 ;    50.1890 ;   855.8098  ;     0.7861 ;   -0.2915 ;   -0.5450
  -92.6987 ;    50.2201 ;   855.8098  ;     0.7731 ;   -0.3269 ;   -0.5436
  -92.6855 ;    50.2507 ;   855.8098  ;     0.7588 ;   -0.3625 ;   -0.5412
  -92.6710 ;    50.2808 ;   855.8099  ;     0.7435 ;   -0.3978 ;   -0.5375
  -92.6551 ;    50.3101 ;   855.8099  ;     0.7272 ;   -0.4328 ;   -0.5328
  -92.6380 ;    50.3387 ;   855.8099  ;     0.7098 ;   -0.4675 ;   -0.5269
  -92.6196 ;    50.3666 ;   855.8099  ;     0.6910 ;   -0.5024 ;   -0.5198
  -92.6050 ;    50.3869 ;   855.8099  ;     0.6758 ;   -0.5287 ;   -0.5136
  -92.5897 ;    50.4068 ;   855.8100  ;     0.6595 ;   -0.5551 ;   -0.5068
  -92.5738 ;    50.4261 ;   855.8100  ;     0.6422 ;   -0.5816 ;   -0.4994
  -92.5572 ;    50.4448 ;   855.8100  ;     0.6238 ;   -0.6079 ;   -0.4913
  -92.5399 ;    50.4630 ;   855.8100  ;     0.6042 ;   -0.6340 ;   -0.4826
  -92.5220 ;    50.4805 ;   855.8100  ;     0.5835 ;   -0.6599 ;   -0.4734
  -92.5035 ;    50.4973 ;   855.8100  ;     0.5617 ;   -0.6853 ;   -0.4636
  -92.4843 ;    50.5135 ;   855.8100  ;     0.5386 ;   -0.7101 ;   -0.4534
  -92.4645 ;    50.5289 ;   855.8100  ;     0.5144 ;   -0.7343 ;   -0.4428
  -92.4442 ;    50.5435 ;   855.8100  ;     0.4892 ;   -0.7578 ;   -0.4318
  -92.4233 ;    50.5574 ;   855.8100  ;     0.4629 ;   -0.7803 ;   -0.4205
  -92.4020 ;    50.5704 ;   855.8101  ;     0.4355 ;   -0.8019 ;   -0.4090
  -92.3801 ;    50.5825 ;   855.8101  ;     0.4072 ;   -0.8224 ;   -0.3973
  -92.3577 ;    50.5939 ;   855.8101  ;     0.3781 ;   -0.8417 ;   -0.3854
  -92.3350 ;    50.6043 ;   855.8101  ;     0.3483 ;   -0.8598 ;   -0.3734
  -92.3118 ;    50.6138 ;   855.8101  ;     0.3178 ;   -0.8766 ;   -0.3612
  -92.2883 ;    50.6225 ;   855.8101  ;     0.2869 ;   -0.8921 ;   -0.3491
  -92.2645 ;    50.6302 ;   855.8101  ;     0.2555 ;   -0.9062 ;   -0.3369
  -92.2404 ;    50.6371 ;   855.8101  ;     0.2240 ;   -0.9189 ;   -0.3248
  -92.2161 ;    50.6430 ;   855.8101  ;     0.1924 ;   -0.9301 ;   -0.3128
  -92.1916 ;    50.6481 ;   855.8101  ;     0.1608 ;   -0.9400 ;   -0.3008
  -92.1669 ;    50.6522 ;   855.8101  ;     0.1295 ;   -0.9485 ;   -0.2890
  -92.1421 ;    50.6556 ;   855.8101  ;     0.0985 ;   -0.9557 ;   -0.2772
  -92.1172 ;    50.6580 ;   855.8101  ;     0.0679 ;   -0.9617 ;   -0.2657
  -92.0923 ;    50.6596 ;   855.8101  ;     0.0378 ;   -0.9664 ;   -0.2543
  -92.0673 ;    50.6604 ;   855.8101  ;     0.0082 ;   -0.9700 ;   -0.2430
  -92.0422 ;    50.6604 ;   855.8101  ;    -0.0210 ;   -0.9725 ;   -0.2319
  -92.0172 ;    50.6596 ;   855.8101  ;    -0.0497 ;   -0.9740 ;   -0.2210
  -91.9840 ;    50.6573 ;   855.8101  ;    -0.0872 ;   -0.9745 ;   -0.2066
  -91.9508 ;    50.6538 ;   855.8101  ;    -0.1236 ;   -0.9735 ;   -0.1925
  -91.9178 ;    50.6490 ;   855.8101  ;    -0.1585 ;   -0.9711 ;   -0.1787
  -91.8849 ;    50.6431 ;   855.8100  ;    -0.1919 ;   -0.9674 ;   -0.1653
  -91.8523 ;    50.6362 ;   855.8100  ;    -0.2235 ;   -0.9627 ;   -0.1523
  -91.8199 ;    50.6283 ;   855.8100  ;    -0.2535 ;   -0.9572 ;   -0.1397
  -91.7877 ;    50.6194 ;   855.8100  ;    -0.2818 ;   -0.9509 ;   -0.1276
  -91.7558 ;    50.6096 ;   855.8100  ;    -0.3087 ;   -0.9441 ;   -0.1158
  -91.7242 ;    50.5990 ;   855.8100  ;    -0.3340 ;   -0.9368 ;   -0.1044
  -91.6773 ;    50.5815 ;   855.8100  ;    -0.3693 ;   -0.9251 ;   -0.0881
  -91.6311 ;    50.5623 ;   855.8100  ;    -0.4019 ;   -0.9128 ;   -0.0725
  -91.5856 ;    50.5416 ;   855.8099  ;    -0.4320 ;   -0.9000 ;   -0.0578
  -91.5408 ;    50.5194 ;   855.8099  ;    -0.4596 ;   -0.8870 ;   -0.0438
  -91.4822 ;    50.4876 ;   855.8099  ;    -0.4919 ;   -0.8703 ;   -0.0262
  -91.4248 ;    50.4536 ;   855.8098  ;    -0.5187 ;   -0.8549 ;   -0.0097
  -91.3684 ;    50.4180 ;   855.8098  ;    -0.5402 ;   -0.8415 ;    0.0057
  -91.2850 ;    50.3628 ;   855.8098  ;    -0.5629 ;   -0.8261 ;    0.0270
  -91.2028 ;    50.3059 ;   855.8097  ;    -0.5769 ;   -0.8155 ;    0.0462
  -91.1216 ;    50.2475 ;   855.8097  ;    -0.5851 ;   -0.8085 ;    0.0636
  -91.0409 ;    50.1885 ;   855.8096  ;    -0.5898 ;   -0.8036 ;    0.0794
  -90.8797 ;    50.0702 ;   855.8095  ;    -0.5946 ;   -0.7969 ;    0.1069
  -90.7201 ;    49.9495 ;   855.8094  ;    -0.5959 ;   -0.7925 ;    0.1300
  -90.5600 ;    49.8297 ;   855.8093  ;    -0.5967 ;   -0.7885 ;    0.1495
  -90.4012 ;    49.7082 ;   855.8092  ;    -0.6066 ;   -0.7774 ;    0.1665
  -90.2449 ;    49.5834 ;   855.8091  ;    -0.6171 ;   -0.7656 ;    0.1816
  -90.0899 ;    49.4570 ;   855.8090  ;    -0.6254 ;   -0.7555 ;    0.1951
  -89.9368 ;    49.3283 ;   855.8088  ;    -0.6381 ;   -0.7414 ;    0.2078
  -89.7868 ;    49.1959 ;   855.8087  ;    -0.6530 ;   -0.7246 ;    0.2203
  -89.6397 ;    49.0605 ;   855.8086  ;    -0.6652 ;   -0.7090 ;    0.2343
  -89.4952 ;    48.9222 ;   855.8085  ;    -0.6788 ;   -0.6902 ;    0.2509
  -89.3546 ;    48.7800 ;   855.8084  ;    -0.6962 ;   -0.6682 ;    0.2624
  -89.2182 ;    48.6336 ;   855.8082  ;    -0.7137 ;   -0.6491 ;    0.2634
  -89.0854 ;    48.4841 ;   855.8081  ;    -0.7293 ;   -0.6330 ;    0.2596
  -88.9561 ;    48.3315 ;   855.8080  ;    -0.7443 ;   -0.6161 ;    0.2578
  -88.8304 ;    48.1760 ;   855.8079  ;    -0.7582 ;   -0.5986 ;    0.2584
  -88.7082 ;    48.0177 ;   855.8077  ;    -0.7701 ;   -0.5829 ;    0.2592
  -88.5888 ;    47.8572 ;   855.8076  ;    -0.7793 ;   -0.5706 ;    0.2591
  -88.4717 ;    47.6951 ;   855.8075  ;    -0.7855 ;   -0.5623 ;    0.2586
  -88.3558 ;    47.5321 ;   855.8073  ;    -0.7888 ;   -0.5578 ;    0.2582
  -88.2405 ;    47.3686 ;   855.8072  ;    -0.7895 ;   -0.5568 ;    0.2581
  -88.1252 ;    47.2053 ;   855.8070  ;    -0.7887 ;   -0.5580 ;    0.2581
  -88.0095 ;    47.0421 ;   855.8069  ;    -0.7876 ;   -0.5596 ;    0.2580
  -87.8935 ;    46.8792 ;   855.8068  ;    -0.7862 ;   -0.5616 ;    0.2579
  -87.7771 ;    46.7166 ;   855.8066  ;    -0.7847 ;   -0.5638 ;    0.2577
  -87.6602 ;    46.5542 ;   855.8065  ;    -0.7843 ;   -0.5643 ;    0.2576
  -87.5436 ;    46.3918 ;   855.8064  ;    -0.7851 ;   -0.5632 ;    0.2575
  -87.4272 ;    46.2292 ;   855.8062  ;    -0.7862 ;   -0.5619 ;    0.2573
  -87.3111 ;    46.0663 ;   855.8061  ;    -0.7871 ;   -0.5607 ;    0.2572
  -87.1951 ;    45.9033 ;   855.8060  ;    -0.7878 ;   -0.5597 ;    0.2570
  -87.0794 ;    45.7402 ;   855.8058  ;    -0.7880 ;   -0.5595 ;    0.2569
  -86.9635 ;    45.5772 ;   855.8057  ;    -0.7872 ;   -0.5607 ;    0.2568
  -86.8473 ;    45.4144 ;   855.8056  ;    -0.7856 ;   -0.5630 ;    0.2567
  -86.7305 ;    45.2521 ;   855.8054  ;    -0.7830 ;   -0.5666 ;    0.2566
  -86.6129 ;    45.0903 ;   855.8053  ;    -0.7801 ;   -0.5707 ;    0.2565
  -86.4944 ;    44.9292 ;   855.8052  ;    -0.7775 ;   -0.5742 ;    0.2564
  -86.3753 ;    44.7685 ;   855.8050  ;    -0.7754 ;   -0.5771 ;    0.2563
  -86.2557 ;    44.6082 ;   855.8049  ;    -0.7736 ;   -0.5796 ;    0.2561
  -86.1356 ;    44.4484 ;   855.8048  ;    -0.7721 ;   -0.5816 ;    0.2560
  -86.0151 ;    44.2887 ;   855.8046  ;    -0.7711 ;   -0.5831 ;    0.2559
  -85.8943 ;    44.1293 ;   855.8045  ;    -0.7691 ;   -0.5857 ;    0.2558
  -85.7728 ;    43.9704 ;   855.8044  ;    -0.7668 ;   -0.5888 ;    0.2556
  -85.6508 ;    43.8120 ;   855.8042  ;    -0.7658 ;   -0.5901 ;    0.2555
  -85.5288 ;    43.6535 ;   855.8041  ;    -0.7653 ;   -0.5909 ;    0.2554
  -85.4064 ;    43.4953 ;   855.8040  ;    -0.7638 ;   -0.5929 ;    0.2552
  -85.2835 ;    43.3375 ;   855.8038  ;    -0.7619 ;   -0.5953 ;    0.2550
  -85.1602 ;    43.1801 ;   855.8037  ;    -0.7610 ;   -0.5965 ;    0.2549
  -85.0369 ;    43.0226 ;   855.8036  ;    -0.7608 ;   -0.5969 ;    0.2548
  -84.9134 ;    42.8653 ;   855.8034  ;    -0.7606 ;   -0.5972 ;    0.2546
  -84.7899 ;    42.7079 ;   855.8033  ;    -0.7601 ;   -0.5979 ;    0.2545
  -84.6662 ;    42.5508 ;   855.8032  ;    -0.7600 ;   -0.5981 ;    0.2543
  -84.5426 ;    42.3935 ;   855.8031  ;    -0.7606 ;   -0.5974 ;    0.2542
  -84.4191 ;    42.2362 ;   855.8029  ;    -0.7604 ;   -0.5977 ;    0.2540
  -84.2955 ;    42.0790 ;   855.8028  ;    -0.7608 ;   -0.5973 ;    0.2539
  -84.1722 ;    41.9215 ;   855.8027  ;    -0.7613 ;   -0.5967 ;    0.2537
  -84.0488 ;    41.7642 ;   855.8025  ;    -0.7609 ;   -0.5973 ;    0.2536
  -83.9252 ;    41.6069 ;   855.8024  ;    -0.7601 ;   -0.5983 ;    0.2534
  -83.8014 ;    41.4498 ;   855.8023  ;    -0.7596 ;   -0.5990 ;    0.2533
  -83.6776 ;    41.2927 ;   855.8021  ;    -0.7597 ;   -0.5989 ;    0.2531
  -83.5539 ;    41.1356 ;   855.8020  ;    -0.7598 ;   -0.5989 ;    0.2530
  -83.4301 ;    40.9785 ;   855.8019  ;    -0.7600 ;   -0.5987 ;    0.2528
  -83.3064 ;    40.8213 ;   855.8017  ;    -0.7605 ;   -0.5982 ;    0.2526
  -83.1829 ;    40.6641 ;   855.8016  ;    -0.7621 ;   -0.5962 ;    0.2525
  -83.0600 ;    40.5062 ;   855.8015  ;    -0.7629 ;   -0.5952 ;    0.2524
  -82.9368 ;    40.3487 ;   855.8013  ;    -0.7633 ;   -0.5948 ;    0.2522
  -82.8142 ;    40.1907 ;   855.8012  ;    -0.7644 ;   -0.5935 ;    0.2521
  -82.6916 ;    40.0327 ;   855.8011  ;    -0.7644 ;   -0.5935 ;    0.2519
  -82.5689 ;    39.8747 ;   855.8009  ;    -0.7648 ;   -0.5930 ;    0.2517
  -82.4465 ;    39.7165 ;   855.8008  ;    -0.7647 ;   -0.5932 ;    0.2516
  -82.3238 ;    39.5586 ;   855.8007  ;    -0.7646 ;   -0.5935 ;    0.2514
  -82.2013 ;    39.4005 ;   855.8006  ;    -0.7651 ;   -0.5929 ;    0.2513
  -82.0788 ;    39.2424 ;   855.8004  ;    -0.7647 ;   -0.5934 ;    0.2511
  -81.9561 ;    39.0845 ;   855.8003  ;    -0.7641 ;   -0.5943 ;    0.2509
  -81.8333 ;    38.9266 ;   855.8002  ;    -0.7638 ;   -0.5948 ;    0.2508
  -81.7104 ;    38.7688 ;   855.8000  ;    -0.7641 ;   -0.5944 ;    0.2506
  -81.5878 ;    38.6109 ;   855.7999  ;    -0.7644 ;   -0.5941 ;    0.2505
  -81.4650 ;    38.4530 ;   855.7998  ;    -0.7642 ;   -0.5945 ;    0.2503
  -81.3422 ;    38.2951 ;   855.7996  ;    -0.7646 ;   -0.5940 ;    0.2501
  -81.2197 ;    38.1370 ;   855.7995  ;    -0.7656 ;   -0.5928 ;    0.2500
  -81.0973 ;    37.9788 ;   855.7994  ;    -0.7652 ;   -0.5934 ;    0.2498
  -80.9746 ;    37.8209 ;   855.7992  ;    -0.7640 ;   -0.5950 ;    0.2496
  -80.8516 ;    37.6632 ;   855.7991  ;    -0.7640 ;   -0.5950 ;    0.2495
  -80.7288 ;    37.5053 ;   855.7990  ;    -0.7626 ;   -0.5969 ;    0.2493
  -80.6051 ;    37.3482 ;   855.7988  ;    -0.7612 ;   -0.5988 ;    0.2491
  -80.4816 ;    37.1909 ;   855.7987  ;    -0.7624 ;   -0.5973 ;    0.2490
  -80.3585 ;    37.0332 ;   855.7986  ;    -0.7629 ;   -0.5967 ;    0.2488
  -80.2353 ;    36.8757 ;   855.7984  ;    -0.7635 ;   -0.5960 ;    0.2486
  -80.1124 ;    36.7179 ;   855.7983  ;    -0.7646 ;   -0.5947 ;    0.2485
  -79.9897 ;    36.5600 ;   855.7982  ;    -0.7650 ;   -0.5943 ;    0.2483
  -79.8671 ;    36.4020 ;   855.7980  ;    -0.7653 ;   -0.5939 ;    0.2481
  -79.7445 ;    36.2439 ;   855.7979  ;    -0.7651 ;   -0.5943 ;    0.2479
  -79.6217 ;    36.0861 ;   855.7978  ;    -0.7647 ;   -0.5949 ;    0.2477
  -79.4990 ;    35.9282 ;   855.7977  ;    -0.7652 ;   -0.5942 ;    0.2476
  -79.3765 ;    35.7701 ;   855.7975  ;    -0.7651 ;   -0.5945 ;    0.2474
  -79.2537 ;    35.6122 ;   855.7974  ;    -0.7655 ;   -0.5941 ;    0.2472
  -79.1313 ;    35.4540 ;   855.7973  ;    -0.7672 ;   -0.5918 ;    0.2471
  -79.0093 ;    35.2955 ;   855.7971  ;    -0.7668 ;   -0.5925 ;    0.2469
  -78.8867 ;    35.1375 ;   855.7970  ;    -0.7654 ;   -0.5944 ;    0.2467
  -78.7641 ;    34.9795 ;   855.7969  ;    -0.7656 ;   -0.5941 ;    0.2466
  -78.6415 ;    34.8215 ;   855.7967  ;    -0.7654 ;   -0.5946 ;    0.2464
  -78.5187 ;    34.6636 ;   855.7966  ;    -0.7645 ;   -0.5957 ;    0.2462
  -78.3957 ;    34.5059 ;   855.7965  ;    -0.7643 ;   -0.5961 ;    0.2460
  -78.2728 ;    34.3482 ;   855.7963  ;    -0.7640 ;   -0.5965 ;    0.2458
  -78.1497 ;    34.1906 ;   855.7962  ;    -0.7642 ;   -0.5964 ;    0.2456
  -78.0267 ;    34.0328 ;   855.7961  ;    -0.7642 ;   -0.5964 ;    0.2455
  -77.9036 ;    33.8752 ;   855.7959  ;    -0.7633 ;   -0.5977 ;    0.2453
  -77.7801 ;    33.7178 ;   855.7958  ;    -0.7627 ;   -0.5985 ;    0.2451
  -77.6568 ;    33.5604 ;   855.7957  ;    -0.7636 ;   -0.5974 ;    0.2449
  -77.5337 ;    33.4027 ;   855.7955  ;    -0.7641 ;   -0.5969 ;    0.2447
  -77.4106 ;    33.2452 ;   855.7954  ;    -0.7639 ;   -0.5972 ;    0.2445
  -77.2874 ;    33.0876 ;   855.7953  ;    -0.7649 ;   -0.5960 ;    0.2444
  -77.1647 ;    32.9296 ;   855.7952  ;    -0.7658 ;   -0.5949 ;    0.2442
  -77.0421 ;    32.7717 ;   855.7950  ;    -0.7655 ;   -0.5954 ;    0.2440
  -76.9192 ;    32.6139 ;   855.7949  ;    -0.7654 ;   -0.5956 ;    0.2438
  -76.7965 ;    32.4559 ;   855.7948  ;    -0.7662 ;   -0.5946 ;    0.2436
  -76.6740 ;    32.2978 ;   855.7946  ;    -0.7659 ;   -0.5951 ;    0.2435
  -76.5511 ;    32.1401 ;   855.7945  ;    -0.7642 ;   -0.5974 ;    0.2432
  -76.4278 ;    31.9826 ;   855.7944  ;    -0.7642 ;   -0.5975 ;    0.2430
  -76.3048 ;    31.8249 ;   855.7942  ;    -0.7658 ;   -0.5955 ;    0.2429
  -76.1822 ;    31.6668 ;   855.7941  ;    -0.7662 ;   -0.5950 ;    0.2427
  -76.0595 ;    31.5089 ;   855.7940  ;    -0.7658 ;   -0.5957 ;    0.2425
  -75.9367 ;    31.3510 ;   855.7938  ;    -0.7665 ;   -0.5947 ;    0.2423
  -75.8143 ;    31.1928 ;   855.7937  ;    -0.7676 ;   -0.5935 ;    0.2421
  -75.6921 ;    31.0346 ;   855.7936  ;    -0.7675 ;   -0.5936 ;    0.2419
  -75.5697 ;    30.8764 ;   855.7934  ;    -0.7671 ;   -0.5942 ;    0.2417
  -75.4472 ;    30.7183 ;   855.7933  ;    -0.7677 ;   -0.5936 ;    0.2415
  -75.3250 ;    30.5599 ;   855.7932  ;    -0.7679 ;   -0.5934 ;    0.2413
  -75.2027 ;    30.4017 ;   855.7930  ;    -0.7670 ;   -0.5946 ;    0.2411
  -75.0800 ;    30.2438 ;   855.7929  ;    -0.7670 ;   -0.5947 ;    0.2409
  -74.9576 ;    30.0856 ;   855.7928  ;    -0.7679 ;   -0.5936 ;    0.2407
  -74.8354 ;    29.9273 ;   855.7926  ;    -0.7678 ;   -0.5938 ;    0.2406
  -74.7129 ;    29.7691 ;   855.7925  ;    -0.7666 ;   -0.5954 ;    0.2403
  -74.5901 ;    29.6113 ;   855.7924  ;    -0.7665 ;   -0.5957 ;    0.2401
  -74.4676 ;    29.4532 ;   855.7923  ;    -0.7678 ;   -0.5941 ;    0.2400
  -74.3453 ;    29.2950 ;   855.7921  ;    -0.7675 ;   -0.5946 ;    0.2398
  -74.2226 ;    29.1370 ;   855.7920  ;    -0.7657 ;   -0.5970 ;    0.2395
  -74.0995 ;    28.9794 ;   855.7919  ;    -0.7656 ;   -0.5971 ;    0.2393
  -73.9767 ;    28.8215 ;   855.7917  ;    -0.7670 ;   -0.5954 ;    0.2392
  -73.8543 ;    28.6634 ;   855.7916  ;    -0.7679 ;   -0.5944 ;    0.2389
  -73.7319 ;    28.5052 ;   855.7915  ;    -0.7682 ;   -0.5941 ;    0.2387
  -73.6096 ;    28.3470 ;   855.7913  ;    -0.7679 ;   -0.5944 ;    0.2385
  -73.4871 ;    28.1889 ;   855.7912  ;    -0.7676 ;   -0.5949 ;    0.2383
  -73.3646 ;    28.0308 ;   855.7911  ;    -0.7673 ;   -0.5954 ;    0.2381
  -73.2419 ;    27.8728 ;   855.7909  ;    -0.7667 ;   -0.5963 ;    0.2379
  -73.1191 ;    27.7150 ;   855.7908  ;    -0.7668 ;   -0.5962 ;    0.2377
  -72.9965 ;    27.5570 ;   855.7907  ;    -0.7681 ;   -0.5946 ;    0.2375
  -72.8743 ;    27.3987 ;   855.7905  ;    -0.7689 ;   -0.5937 ;    0.2373
  -72.7520 ;    27.2404 ;   855.7904  ;    -0.7677 ;   -0.5953 ;    0.2371
  -72.6292 ;    27.0825 ;   855.7903  ;    -0.7663 ;   -0.5972 ;    0.2368
  -72.5063 ;    26.9247 ;   855.7901  ;    -0.7681 ;   -0.5950 ;    0.2366
  -72.3843 ;    26.7662 ;   855.7900  ;    -0.7709 ;   -0.5914 ;    0.2365
  -72.2628 ;    26.6074 ;   855.7899  ;    -0.7701 ;   -0.5925 ;    0.2363
  -72.1404 ;    26.4492 ;   855.7897  ;    -0.7685 ;   -0.5947 ;    0.2360
  -72.0181 ;    26.2910 ;   855.7896  ;    -0.7703 ;   -0.5924 ;    0.2358
  -71.8966 ;    26.1321 ;   855.7895  ;    -0.7717 ;   -0.5908 ;    0.2356
  -71.7749 ;    25.9734 ;   855.7893  ;    -0.7703 ;   -0.5927 ;    0.2354
  -71.6527 ;    25.8151 ;   855.7892  ;    -0.7699 ;   -0.5932 ;    0.2352
  -71.5308 ;    25.6565 ;   855.7891  ;    -0.7693 ;   -0.5941 ;    0.2350
  -71.4083 ;    25.4984 ;   855.7890  ;    -0.7668 ;   -0.5974 ;    0.2347
  -71.2851 ;    25.3409 ;   855.7888  ;    -0.7656 ;   -0.5991 ;    0.2345
  -71.1620 ;    25.1833 ;   855.7887  ;    -0.7669 ;   -0.5975 ;    0.2343
  -71.0395 ;    25.0252 ;   855.7886  ;    -0.7697 ;   -0.5939 ;    0.2341
  -70.9177 ;    24.8665 ;   855.7884  ;    -0.7724 ;   -0.5906 ;    0.2339
  -70.7964 ;    24.7075 ;   855.7883  ;    -0.7739 ;   -0.5887 ;    0.2337
  -70.6754 ;    24.5482 ;   855.7882  ;    -0.7725 ;   -0.5906 ;    0.2334
  -70.5535 ;    24.3897 ;   855.7880  ;    -0.7702 ;   -0.5936 ;    0.2332
  -70.4314 ;    24.2313 ;   855.7879  ;    -0.7706 ;   -0.5933 ;    0.2330
  -70.3096 ;    24.0727 ;   855.7878  ;    -0.7720 ;   -0.5915 ;    0.2328
  -70.1880 ;    23.9139 ;   855.7876  ;    -0.7710 ;   -0.5929 ;    0.2326
  -70.0657 ;    23.7556 ;   855.7875  ;    -0.7672 ;   -0.5979 ;    0.2323
  -69.9423 ;    23.5982 ;   855.7874  ;    -0.7655 ;   -0.6001 ;    0.2320
  -69.8191 ;    23.4407 ;   855.7872  ;    -0.7682 ;   -0.5968 ;    0.2319
  -69.6970 ;    23.2823 ;   855.7871  ;    -0.7704 ;   -0.5940 ;    0.2317
  -69.5749 ;    23.1239 ;   855.7870  ;    -0.7700 ;   -0.5946 ;    0.2314
  -69.4526 ;    22.9656 ;   855.7868  ;    -0.7706 ;   -0.5939 ;    0.2312
  -69.3308 ;    22.8070 ;   855.7867  ;    -0.7728 ;   -0.5911 ;    0.2310
  -69.2096 ;    22.6479 ;   855.7866  ;    -0.7733 ;   -0.5905 ;    0.2308
  -69.0880 ;    22.4891 ;   855.7864  ;    -0.7719 ;   -0.5924 ;    0.2305
  -68.9661 ;    22.3306 ;   855.7863  ;    -0.7721 ;   -0.5923 ;    0.2303
  -68.8446 ;    22.1717 ;   855.7862  ;    -0.7727 ;   -0.5916 ;    0.2301
  -68.7229 ;    22.0130 ;   855.7860  ;    -0.7723 ;   -0.5922 ;    0.2298
  -68.6012 ;    21.8542 ;   855.7859  ;    -0.7714 ;   -0.5935 ;    0.2296
  -68.4792 ;    21.6958 ;   855.7858  ;    -0.7711 ;   -0.5940 ;    0.2293
  -68.3573 ;    21.5372 ;   855.7857  ;    -0.7737 ;   -0.5906 ;    0.2291
  -68.2365 ;    21.3779 ;   855.7855  ;    -0.7760 ;   -0.5877 ;    0.2289
  -68.1157 ;    21.2184 ;   855.7854  ;    -0.7742 ;   -0.5902 ;    0.2286
  -67.9940 ;    21.0597 ;   855.7853  ;    -0.7725 ;   -0.5925 ;    0.2284
  -67.8724 ;    20.9009 ;   855.7851  ;    -0.7745 ;   -0.5900 ;    0.2282
  -67.7516 ;    20.7415 ;   855.7850  ;    -0.7761 ;   -0.5880 ;    0.2280
  -67.6307 ;    20.5822 ;   855.7849  ;    -0.7744 ;   -0.5904 ;    0.2277
  -67.5091 ;    20.4235 ;   855.7847  ;    -0.7716 ;   -0.5941 ;    0.2274
  -67.3868 ;    20.2652 ;   855.7846  ;    -0.7704 ;   -0.5957 ;    0.2272
  -67.2646 ;    20.1069 ;   855.7845  ;    -0.7709 ;   -0.5951 ;    0.2270
  -67.1425 ;    19.9485 ;   855.7843  ;    -0.7713 ;   -0.5947 ;    0.2267
  -67.0203 ;    19.7901 ;   855.7842  ;    -0.7710 ;   -0.5952 ;    0.2265
  -66.8981 ;    19.6318 ;   855.7841  ;    -0.7705 ;   -0.5959 ;    0.2263
  -66.7757 ;    19.4736 ;   855.7839  ;    -0.7701 ;   -0.5965 ;    0.2260
  -66.6532 ;    19.3155 ;   855.7838  ;    -0.7707 ;   -0.5958 ;    0.2258
  -66.5311 ;    19.1571 ;   855.7837  ;    -0.7720 ;   -0.5942 ;    0.2255
  -66.4093 ;    18.9985 ;   855.7835  ;    -0.7726 ;   -0.5936 ;    0.2253
  -66.2874 ;    18.8399 ;   855.7834  ;    -0.7729 ;   -0.5933 ;    0.2250
  -66.1658 ;    18.6812 ;   855.7833  ;    -0.7731 ;   -0.5931 ;    0.2248
  -66.0440 ;    18.5225 ;   855.7831  ;    -0.7729 ;   -0.5935 ;    0.2245
  -65.9223 ;    18.3638 ;   855.7830  ;    -0.7743 ;   -0.5917 ;    0.2243
  -65.8012 ;    18.2046 ;   855.7829  ;    -0.7774 ;   -0.5877 ;    0.2241
  -65.6810 ;    18.0448 ;   855.7827  ;    -0.7784 ;   -0.5865 ;    0.2238
  -65.5604 ;    17.8852 ;   855.7826  ;    -0.7761 ;   -0.5897 ;    0.2235
  -65.4390 ;    17.7263 ;   855.7825  ;    -0.7742 ;   -0.5922 ;    0.2233
  -65.3175 ;    17.5674 ;   855.7823  ;    -0.7737 ;   -0.5929 ;    0.2231
  -65.1958 ;    17.4087 ;   855.7822  ;    -0.7729 ;   -0.5941 ;    0.2228
  -65.0738 ;    17.2503 ;   855.7821  ;    -0.7727 ;   -0.5945 ;    0.2225
  -64.9519 ;    17.0917 ;   855.7819  ;    -0.7729 ;   -0.5943 ;    0.2223
  -64.8300 ;    16.9331 ;   855.7818  ;    -0.7719 ;   -0.5957 ;    0.2220
  -64.7077 ;    16.7749 ;   855.7817  ;    -0.7713 ;   -0.5966 ;    0.2217
  -64.5855 ;    16.6166 ;   855.7816  ;    -0.7731 ;   -0.5944 ;    0.2215
  -64.4639 ;    16.4578 ;   855.7814  ;    -0.7753 ;   -0.5915 ;    0.2213
  -64.3428 ;    16.2986 ;   855.7813  ;    -0.7752 ;   -0.5917 ;    0.2210
  -64.2211 ;    16.1399 ;   855.7812  ;    -0.7729 ;   -0.5948 ;    0.2207
  -64.0989 ;    15.9816 ;   855.7810  ;    -0.7716 ;   -0.5967 ;    0.2205
  -63.9766 ;    15.8234 ;   855.7809  ;    -0.7710 ;   -0.5975 ;    0.2202
  -63.8539 ;    15.6653 ;   855.7808  ;    -0.7701 ;   -0.5988 ;    0.2199
  -63.7312 ;    15.5075 ;   855.7806  ;    -0.7716 ;   -0.5970 ;    0.2197
  -63.6092 ;    15.3490 ;   855.7805  ;    -0.7737 ;   -0.5943 ;    0.2195
  -63.4874 ;    15.1903 ;   855.7804  ;    -0.7718 ;   -0.5969 ;    0.2192
  -63.3645 ;    15.0325 ;   855.7802  ;    -0.7692 ;   -0.6004 ;    0.2189
  -63.2415 ;    14.8748 ;   855.7801  ;    -0.7718 ;   -0.5971 ;    0.2186
  -63.1199 ;    14.7161 ;   855.7800  ;    -0.7764 ;   -0.5912 ;    0.2184
  -62.9991 ;    14.5567 ;   855.7798  ;    -0.7764 ;   -0.5913 ;    0.2182
  -62.8774 ;    14.3979 ;   855.7797  ;    -0.7736 ;   -0.5951 ;    0.2178
  -62.7553 ;    14.2396 ;   855.7796  ;    -0.7730 ;   -0.5959 ;    0.2176
  -62.6334 ;    14.0810 ;   855.7794  ;    -0.7736 ;   -0.5952 ;    0.2173
  -62.5115 ;    13.9225 ;   855.7793  ;    -0.7752 ;   -0.5933 ;    0.2170
  -62.3903 ;    13.7634 ;   855.7792  ;    -0.7774 ;   -0.5905 ;    0.2168
  -62.2694 ;    13.6039 ;   855.7790  ;    -0.7759 ;   -0.5925 ;    0.2165
  -62.1476 ;    13.4454 ;   855.7789  ;    -0.7742 ;   -0.5949 ;    0.2162
  -62.0258 ;    13.2867 ;   855.7788  ;    -0.7750 ;   -0.5939 ;    0.2160
  -61.9043 ;    13.1278 ;   855.7786  ;    -0.7741 ;   -0.5951 ;    0.2157
  -61.7822 ;    12.9695 ;   855.7785  ;    -0.7749 ;   -0.5943 ;    0.2154
  -61.6610 ;    12.8105 ;   855.7784  ;    -0.7783 ;   -0.5898 ;    0.2152
  -61.5404 ;    12.6508 ;   855.7782  ;    -0.7764 ;   -0.5925 ;    0.2149
  -61.4182 ;    12.4925 ;   855.7781  ;    -0.7716 ;   -0.5988 ;    0.2145
  -61.2955 ;    12.3346 ;   855.7780  ;    -0.7736 ;   -0.5964 ;    0.2143
  -61.1742 ;    12.1756 ;   855.7779  ;    -0.7784 ;   -0.5901 ;    0.2141
  -61.0537 ;    12.0159 ;   855.7777  ;    -0.7778 ;   -0.5910 ;    0.2138
  -60.9321 ;    11.8571 ;   855.7776  ;    -0.7744 ;   -0.5956 ;    0.2134
  -60.8100 ;    11.6988 ;   855.7775  ;    -0.7764 ;   -0.5931 ;    0.2132
  -60.6894 ;    11.5392 ;   855.7773  ;    -0.7800 ;   -0.5884 ;    0.2130
  -60.5691 ;    11.3794 ;   855.7772  ;    -0.7780 ;   -0.5912 ;    0.2127
  -60.4475 ;    11.2207 ;   855.7771  ;    -0.7773 ;   -0.5922 ;    0.2123
  -60.3268 ;    11.0612 ;   855.7769  ;    -0.7812 ;   -0.5872 ;    0.2122
  -60.2070 ;    10.9010 ;   855.7768  ;    -0.7808 ;   -0.5877 ;    0.2119
  -60.0862 ;    10.7416 ;   855.7767  ;    -0.7780 ;   -0.5916 ;    0.2115
  -59.9651 ;    10.5825 ;   855.7765  ;    -0.7792 ;   -0.5901 ;    0.2113
  -59.8448 ;    10.4227 ;   855.7764  ;    -0.7813 ;   -0.5874 ;    0.2110
  -59.7247 ;    10.2628 ;   855.7763  ;    -0.7797 ;   -0.5896 ;    0.2107
  -59.6036 ;    10.1036 ;   855.7761  ;    -0.7785 ;   -0.5913 ;    0.2104
  -59.4829 ;     9.9441 ;   855.7760  ;    -0.7824 ;   -0.5862 ;    0.2102
  -59.3638 ;     9.7834 ;   855.7759  ;    -0.7840 ;   -0.5842 ;    0.2099
  -59.2438 ;     9.6234 ;   855.7757  ;    -0.7809 ;   -0.5885 ;    0.2095
  -59.1231 ;     9.4640 ;   855.7756  ;    -0.7817 ;   -0.5875 ;    0.2093
  -59.0036 ;     9.3036 ;   855.7755  ;    -0.7832 ;   -0.5855 ;    0.2090
  -58.8836 ;     9.1436 ;   855.7753  ;    -0.7818 ;   -0.5876 ;    0.2087
  -58.7633 ;     8.9839 ;   855.7752  ;    -0.7816 ;   -0.5879 ;    0.2084
  -58.6432 ;     8.8239 ;   855.7751  ;    -0.7814 ;   -0.5882 ;    0.2081
  -58.5227 ;     8.6643 ;   855.7749  ;    -0.7808 ;   -0.5892 ;    0.2078
  -58.4023 ;     8.5046 ;   855.7748  ;    -0.7806 ;   -0.5895 ;    0.2076
  -58.2817 ;     8.3450 ;   855.7747  ;    -0.7790 ;   -0.5918 ;    0.2072
  -58.1605 ;     8.1860 ;   855.7745  ;    -0.7797 ;   -0.5910 ;    0.2069
  -58.0401 ;     8.0262 ;   855.7744  ;    -0.7811 ;   -0.5892 ;    0.2067
  -57.9196 ;     7.8666 ;   855.7743  ;    -0.7789 ;   -0.5923 ;    0.2063
  -57.7982 ;     7.7077 ;   855.7741  ;    -0.7790 ;   -0.5922 ;    0.2060
  -57.6776 ;     7.5481 ;   855.7740  ;    -0.7816 ;   -0.5889 ;    0.2058
  -57.5574 ;     7.3882 ;   855.7739  ;    -0.7810 ;   -0.5898 ;    0.2054
  -57.4366 ;     7.2289 ;   855.7737  ;    -0.7808 ;   -0.5902 ;    0.2051
  -57.3163 ;     7.0691 ;   855.7736  ;    -0.7827 ;   -0.5877 ;    0.2049
  -57.1965 ;     6.9089 ;   855.7735  ;    -0.7842 ;   -0.5858 ;    0.2045
  -57.0769 ;     6.7487 ;   855.7733  ;    -0.7849 ;   -0.5849 ;    0.2043
  -56.9574 ;     6.5882 ;   855.7732  ;    -0.7830 ;   -0.5877 ;    0.2040
  -56.8369 ;     6.4287 ;   855.7731  ;    -0.7809 ;   -0.5906 ;    0.2036
  -56.7163 ;     6.2692 ;   855.7729  ;    -0.7819 ;   -0.5893 ;    0.2034
  -56.5961 ;     6.1092 ;   855.7728  ;    -0.7811 ;   -0.5905 ;    0.2030
  -56.4751 ;     5.9500 ;   855.7727  ;    -0.7794 ;   -0.5929 ;    0.2027
  -56.3541 ;     5.7908 ;   855.7725  ;    -0.7805 ;   -0.5914 ;    0.2024
  -56.2336 ;     5.6312 ;   855.7724  ;    -0.7820 ;   -0.5896 ;    0.2021
  -56.1133 ;     5.4714 ;   855.7723  ;    -0.7814 ;   -0.5905 ;    0.2018
  -55.9925 ;     5.3120 ;   855.7721  ;    -0.7816 ;   -0.5904 ;    0.2015
  -55.8722 ;     5.1522 ;   855.7720  ;    -0.7822 ;   -0.5896 ;    0.2012
  -55.7517 ;     4.9926 ;   855.7719  ;    -0.7812 ;   -0.5911 ;    0.2009
  -55.6309 ;     4.8332 ;   855.7717  ;    -0.7807 ;   -0.5919 ;    0.2006
  -55.5101 ;     4.6738 ;   855.7716  ;    -0.7790 ;   -0.5941 ;    0.2002
  -55.3884 ;     4.5151 ;   855.7715  ;    -0.7794 ;   -0.5938 ;    0.1999
  -55.2677 ;     4.3555 ;   855.7713  ;    -0.7799 ;   -0.5932 ;    0.1997
  -55.1463 ;     4.1967 ;   855.7712  ;    -0.7788 ;   -0.5947 ;    0.1993
  -55.0250 ;     4.0376 ;   855.7711  ;    -0.7798 ;   -0.5935 ;    0.1990
  -54.9041 ;     3.8784 ;   855.7709  ;    -0.7795 ;   -0.5941 ;    0.1987
  -54.7826 ;     3.7195 ;   855.7708  ;    -0.7790 ;   -0.5949 ;    0.1984
  -54.6614 ;     3.5604 ;   855.7707  ;    -0.7798 ;   -0.5939 ;    0.1981
  -54.5403 ;     3.4012 ;   855.7706  ;    -0.7813 ;   -0.5920 ;    0.1978
  -54.4198 ;     3.2415 ;   855.7704  ;    -0.7814 ;   -0.5919 ;    0.1974
  -54.2988 ;     3.0823 ;   855.7703  ;    -0.7816 ;   -0.5918 ;    0.1971
  -54.1784 ;     2.9226 ;   855.7702  ;    -0.7823 ;   -0.5910 ;    0.1968
  -54.0577 ;     2.7631 ;   855.7700  ;    -0.7814 ;   -0.5923 ;    0.1965
  -53.9368 ;     2.6039 ;   855.7699  ;    -0.7811 ;   -0.5928 ;    0.1962
  -53.8160 ;     2.4444 ;   855.7698  ;    -0.7820 ;   -0.5918 ;    0.1958
  -53.6955 ;     2.2849 ;   855.7696  ;    -0.7833 ;   -0.5901 ;    0.1955
  -53.5753 ;     2.1250 ;   855.7695  ;    -0.7832 ;   -0.5903 ;    0.1952
  -53.4548 ;     1.9654 ;   855.7694  ;    -0.7831 ;   -0.5905 ;    0.1949
  -53.3346 ;     1.8055 ;   855.7692  ;    -0.7844 ;   -0.5890 ;    0.1946
  -53.2147 ;     1.6455 ;   855.7691  ;    -0.7858 ;   -0.5872 ;    0.1942
  -53.0951 ;     1.4851 ;   855.7690  ;    -0.7861 ;   -0.5869 ;    0.1939
  -52.9754 ;     1.3249 ;   855.7688  ;    -0.7860 ;   -0.5871 ;    0.1936
  -52.8558 ;     1.1646 ;   855.7687  ;    -0.7862 ;   -0.5870 ;    0.1933
  -52.7361 ;     1.0044 ;   855.7686  ;    -0.7851 ;   -0.5885 ;    0.1929
  -52.6159 ;     0.8445 ;   855.7684  ;    -0.7844 ;   -0.5896 ;    0.1926
  -52.4959 ;     0.6845 ;   855.7683  ;    -0.7863 ;   -0.5872 ;    0.1923
  -52.3766 ;     0.5240 ;   855.7682  ;    -0.7878 ;   -0.5852 ;    0.1919
  -52.2574 ;     0.3634 ;   855.7680  ;    -0.7882 ;   -0.5849 ;    0.1916
  -52.1383 ;     0.2027 ;   855.7679  ;    -0.7884 ;   -0.5846 ;    0.1913
  -52.0191 ;     0.0421 ;   855.7678  ;    -0.7883 ;   -0.5849 ;    0.1910
  -51.8999 ;    -0.1184 ;   855.7676  ;    -0.7867 ;   -0.5872 ;    0.1906
  -51.7799 ;    -0.2784 ;   855.7675  ;    -0.7844 ;   -0.5904 ;    0.1903
  -51.6594 ;    -0.4381 ;   855.7674  ;    -0.7834 ;   -0.5918 ;    0.1899
  -51.5389 ;    -0.5977 ;   855.7672  ;    -0.7835 ;   -0.5917 ;    0.1896
  -51.4184 ;    -0.7573 ;   855.7671  ;    -0.7831 ;   -0.5924 ;    0.1893
  -51.2976 ;    -0.9167 ;   855.7670  ;    -0.7819 ;   -0.5940 ;    0.1889
  -51.1765 ;    -1.0759 ;   855.7668  ;    -0.7811 ;   -0.5953 ;    0.1886
  -51.0552 ;    -1.2349 ;   855.7667  ;    -0.7804 ;   -0.5963 ;    0.1883
  -50.9336 ;    -1.3937 ;   855.7666  ;    -0.7791 ;   -0.5981 ;    0.1879
  -50.8795 ;    -1.4640 ;   855.7665  ;    -0.7785 ;   -0.5989 ;    0.1878
  -49.8541 ;    -6.8995 ;   887.7624  ;     0.8468 ;    0.5000 ;   -0.1816
  -49.9558 ;    -6.7273 ;   887.7625  ;     0.8468 ;    0.4998 ;   -0.1819
  -50.0573 ;    -6.5550 ;   887.7626  ;     0.8469 ;    0.4996 ;   -0.1823
  -50.1589 ;    -6.3827 ;   887.7628  ;     0.8468 ;    0.4996 ;   -0.1826
  -50.2606 ;    -6.2105 ;   887.7629  ;     0.8466 ;    0.4998 ;   -0.1830
  -50.3622 ;    -6.0383 ;   887.7631  ;     0.8465 ;    0.4998 ;   -0.1833
  -50.4639 ;    -5.8660 ;   887.7632  ;     0.8464 ;    0.4999 ;   -0.1837
  -50.5656 ;    -5.6938 ;   887.7633  ;     0.8461 ;    0.5002 ;   -0.1840
  -50.6674 ;    -5.5217 ;   887.7635  ;     0.8461 ;    0.5000 ;   -0.1844
  -50.7691 ;    -5.3494 ;   887.7636  ;     0.8462 ;    0.4999 ;   -0.1847
  -50.8708 ;    -5.1773 ;   887.7638  ;     0.8456 ;    0.5007 ;   -0.1850
  -50.9729 ;    -5.0052 ;   887.7639  ;     0.8450 ;    0.5017 ;   -0.1854
  -51.0750 ;    -4.8333 ;   887.7640  ;     0.8444 ;    0.5025 ;   -0.1857
  -51.1774 ;    -4.6615 ;   887.7642  ;     0.8439 ;    0.5032 ;   -0.1861
  -51.2798 ;    -4.4897 ;   887.7643  ;     0.8434 ;    0.5039 ;   -0.1864
  -51.3825 ;    -4.3181 ;   887.7645  ;     0.8430 ;    0.5045 ;   -0.1868
  -51.4851 ;    -4.1464 ;   887.7646  ;     0.8428 ;    0.5047 ;   -0.1871
  -51.5879 ;    -3.9748 ;   887.7647  ;     0.8426 ;    0.5048 ;   -0.1874
  -51.6907 ;    -3.8033 ;   887.7649  ;     0.8429 ;    0.5043 ;   -0.1878
  -51.7932 ;    -3.6316 ;   887.7650  ;     0.8435 ;    0.5031 ;   -0.1881
  -51.8955 ;    -3.4597 ;   887.7652  ;     0.8440 ;    0.5022 ;   -0.1885
  -51.9977 ;    -3.2878 ;   887.7653  ;     0.8439 ;    0.5021 ;   -0.1888
  -52.1000 ;    -3.1159 ;   887.7654  ;     0.8441 ;    0.5016 ;   -0.1891
  -52.2020 ;    -2.9439 ;   887.7656  ;     0.8452 ;    0.4998 ;   -0.1895
  -52.3036 ;    -2.7716 ;   887.7657  ;     0.8459 ;    0.4984 ;   -0.1898
  -52.4050 ;    -2.5992 ;   887.7659  ;     0.8453 ;    0.4993 ;   -0.1901
  -52.5070 ;    -2.4272 ;   887.7660  ;     0.8445 ;    0.5005 ;   -0.1905
  -52.6090 ;    -2.2551 ;   887.7661  ;     0.8445 ;    0.5003 ;   -0.1908
  -52.7108 ;    -2.0830 ;   887.7663  ;     0.8443 ;    0.5006 ;   -0.1911
  -52.8129 ;    -1.9110 ;   887.7664  ;     0.8440 ;    0.5010 ;   -0.1915
  -52.9150 ;    -1.7390 ;   887.7665  ;     0.8436 ;    0.5015 ;   -0.1918
  -53.0172 ;    -1.5671 ;   887.7667  ;     0.8431 ;    0.5022 ;   -0.1921
  -53.1196 ;    -1.3954 ;   887.7668  ;     0.8435 ;    0.5015 ;   -0.1925
  -53.2216 ;    -1.2233 ;   887.7670  ;     0.8436 ;    0.5011 ;   -0.1928
  -53.3238 ;    -1.0514 ;   887.7671  ;     0.8429 ;    0.5022 ;   -0.1931
  -53.4263 ;    -0.8797 ;   887.7672  ;     0.8425 ;    0.5028 ;   -0.1935
  -53.5288 ;    -0.7079 ;   887.7674  ;     0.8426 ;    0.5024 ;   -0.1938
  -53.6311 ;    -0.5361 ;   887.7675  ;     0.8431 ;    0.5015 ;   -0.1941
  -53.7332 ;    -0.3641 ;   887.7677  ;     0.8435 ;    0.5007 ;   -0.1944
  -53.8353 ;    -0.1921 ;   887.7678  ;     0.8434 ;    0.5007 ;   -0.1948
  -53.9374 ;    -0.0201 ;   887.7679  ;     0.8430 ;    0.5012 ;   -0.1951
  -54.0396 ;     0.1518 ;   887.7681  ;     0.8427 ;    0.5017 ;   -0.1954
  -54.1420 ;     0.3236 ;   887.7682  ;     0.8431 ;    0.5009 ;   -0.1957
  -54.2439 ;     0.4957 ;   887.7684  ;     0.8438 ;    0.4995 ;   -0.1961
  -54.3457 ;     0.6679 ;   887.7685  ;     0.8429 ;    0.5009 ;   -0.1964
  -54.4483 ;     0.8395 ;   887.7686  ;     0.8417 ;    0.5028 ;   -0.1967
  -54.5508 ;     1.0113 ;   887.7688  ;     0.8414 ;    0.5032 ;   -0.1970
  -54.6535 ;     1.1829 ;   887.7689  ;     0.8413 ;    0.5032 ;   -0.1974
  -54.7561 ;     1.3545 ;   887.7691  ;     0.8411 ;    0.5034 ;   -0.1977
  -54.8588 ;     1.5262 ;   887.7692  ;     0.8398 ;    0.5055 ;   -0.1980
  -54.9623 ;     1.6973 ;   887.7693  ;     0.8382 ;    0.5081 ;   -0.1983
  -55.0661 ;     1.8682 ;   887.7695  ;     0.8383 ;    0.5077 ;   -0.1986
  -55.1694 ;     2.0395 ;   887.7696  ;     0.8390 ;    0.5064 ;   -0.1990
  -55.2727 ;     2.2108 ;   887.7698  ;     0.8394 ;    0.5056 ;   -0.1993
  -55.3758 ;     2.3822 ;   887.7699  ;     0.8397 ;    0.5050 ;   -0.1996
  -55.4788 ;     2.5536 ;   887.7700  ;     0.8396 ;    0.5050 ;   -0.1999
  -55.5819 ;     2.7250 ;   887.7702  ;     0.8396 ;    0.5049 ;   -0.2002
  -55.6849 ;     2.8964 ;   887.7703  ;     0.8399 ;    0.5044 ;   -0.2005
  -55.7878 ;     3.0679 ;   887.7705  ;     0.8406 ;    0.5031 ;   -0.2009
  -55.8903 ;     3.2396 ;   887.7706  ;     0.8415 ;    0.5015 ;   -0.2012
  -55.9925 ;     3.4115 ;   887.7707  ;     0.8414 ;    0.5014 ;   -0.2015
  -56.0950 ;     3.5833 ;   887.7709  ;     0.8411 ;    0.5018 ;   -0.2018
  -56.1974 ;     3.7551 ;   887.7710  ;     0.8418 ;    0.5005 ;   -0.2021
  -56.2994 ;     3.9271 ;   887.7712  ;     0.8429 ;    0.4986 ;   -0.2024
  -56.4010 ;     4.0994 ;   887.7713  ;     0.8430 ;    0.4983 ;   -0.2027
  -56.5029 ;     4.2715 ;   887.7714  ;     0.8422 ;    0.4995 ;   -0.2030
  -56.6050 ;     4.4434 ;   887.7716  ;     0.8424 ;    0.4990 ;   -0.2034
  -56.7067 ;     4.6157 ;   887.7717  ;     0.8436 ;    0.4969 ;   -0.2037
  -56.8080 ;     4.7881 ;   887.7719  ;     0.8436 ;    0.4967 ;   -0.2040
  -56.9096 ;     4.9604 ;   887.7720  ;     0.8429 ;    0.4978 ;   -0.2043
  -57.0114 ;     5.1325 ;   887.7721  ;     0.8425 ;    0.4983 ;   -0.2046
  -57.1132 ;     5.3047 ;   887.7723  ;     0.8416 ;    0.4997 ;   -0.2049
  -57.2155 ;     5.4765 ;   887.7724  ;     0.8409 ;    0.5007 ;   -0.2052
  -57.3178 ;     5.6484 ;   887.7726  ;     0.8419 ;    0.4990 ;   -0.2055
  -57.4195 ;     5.8207 ;   887.7727  ;     0.8426 ;    0.4976 ;   -0.2058
  -57.5212 ;     5.9929 ;   887.7728  ;     0.8415 ;    0.4994 ;   -0.2061
  -57.6236 ;     6.1647 ;   887.7730  ;     0.8399 ;    0.5020 ;   -0.2064
  -57.7263 ;     6.3362 ;   887.7731  ;     0.8397 ;    0.5021 ;   -0.2067
  -57.8287 ;     6.5080 ;   887.7733  ;     0.8405 ;    0.5006 ;   -0.2070
  -57.9309 ;     6.6799 ;   887.7734  ;     0.8414 ;    0.4991 ;   -0.2073
  -58.0328 ;     6.8521 ;   887.7735  ;     0.8414 ;    0.4990 ;   -0.2076
  -58.1349 ;     7.0240 ;   887.7737  ;     0.8403 ;    0.5007 ;   -0.2079
  -58.2375 ;     7.1957 ;   887.7738  ;     0.8403 ;    0.5006 ;   -0.2082
  -58.3396 ;     7.3677 ;   887.7740  ;     0.8414 ;    0.4985 ;   -0.2086
  -58.4413 ;     7.5399 ;   887.7741  ;     0.8411 ;    0.4989 ;   -0.2089
  -58.5436 ;     7.7117 ;   887.7742  ;     0.8397 ;    0.5012 ;   -0.2092
  -58.6463 ;     7.8834 ;   887.7744  ;     0.8392 ;    0.5019 ;   -0.2095
  -58.7488 ;     8.0551 ;   887.7745  ;     0.8394 ;    0.5014 ;   -0.2098
  -58.8514 ;     8.2268 ;   887.7747  ;     0.8397 ;    0.5008 ;   -0.2101
  -58.9537 ;     8.3986 ;   887.7748  ;     0.8401 ;    0.5000 ;   -0.2104
  -59.0559 ;     8.5706 ;   887.7749  ;     0.8396 ;    0.5007 ;   -0.2108
  -59.1585 ;     8.7422 ;   887.7751  ;     0.8386 ;    0.5021 ;   -0.2111
  -59.2613 ;     8.9138 ;   887.7752  ;     0.8388 ;    0.5018 ;   -0.2114
  -59.3638 ;     9.0855 ;   887.7754  ;     0.8400 ;    0.4995 ;   -0.2117
  -59.4657 ;     9.2576 ;   887.7755  ;     0.8406 ;    0.4984 ;   -0.2120
  -59.5678 ;     9.4296 ;   887.7756  ;     0.8402 ;    0.4989 ;   -0.2124
  -59.6699 ;     9.6016 ;   887.7758  ;     0.8403 ;    0.4986 ;   -0.2127
  -59.7718 ;     9.7737 ;   887.7759  ;     0.8408 ;    0.4977 ;   -0.2130
  -59.8736 ;     9.9458 ;   887.7761  ;     0.8413 ;    0.4967 ;   -0.2133
  -59.9752 ;    10.1181 ;   887.7762  ;     0.8414 ;    0.4963 ;   -0.2137
  -60.0768 ;    10.2904 ;   887.7763  ;     0.8402 ;    0.4982 ;   -0.2140
  -60.1791 ;    10.4622 ;   887.7765  ;     0.8394 ;    0.4996 ;   -0.2143
  -60.2813 ;    10.6341 ;   887.7766  ;     0.8403 ;    0.4979 ;   -0.2146
  -60.3829 ;    10.8064 ;   887.7767  ;     0.8416 ;    0.4955 ;   -0.2150
  -60.4842 ;    10.9788 ;   887.7769  ;     0.8415 ;    0.4955 ;   -0.2153
  -60.5859 ;    11.1511 ;   887.7770  ;     0.8405 ;    0.4971 ;   -0.2156
  -60.6878 ;    11.3232 ;   887.7772  ;     0.8402 ;    0.4975 ;   -0.2159
  -60.7896 ;    11.4953 ;   887.7773  ;     0.8406 ;    0.4967 ;   -0.2163
  -60.8912 ;    11.6676 ;   887.7774  ;     0.8408 ;    0.4961 ;   -0.2166
  -60.9929 ;    11.8398 ;   887.7776  ;     0.8407 ;    0.4962 ;   -0.2169
  -61.0945 ;    12.0121 ;   887.7777  ;     0.8405 ;    0.4963 ;   -0.2173
  -61.1962 ;    12.1843 ;   887.7779  ;     0.8406 ;    0.4960 ;   -0.2176
  -61.2977 ;    12.3566 ;   887.7780  ;     0.8411 ;    0.4950 ;   -0.2179
  -61.3990 ;    12.5291 ;   887.7781  ;     0.8413 ;    0.4945 ;   -0.2183
  -61.5004 ;    12.7015 ;   887.7783  ;     0.8411 ;    0.4948 ;   -0.2186
  -61.6018 ;    12.8738 ;   887.7784  ;     0.8406 ;    0.4954 ;   -0.2189
  -61.7034 ;    13.0461 ;   887.7786  ;     0.8406 ;    0.4953 ;   -0.2193
  -61.8048 ;    13.2185 ;   887.7787  ;     0.8411 ;    0.4944 ;   -0.2196
  -61.9060 ;    13.3910 ;   887.7788  ;     0.8417 ;    0.4931 ;   -0.2199
  -62.0070 ;    13.5637 ;   887.7790  ;     0.8419 ;    0.4926 ;   -0.2203
  -62.1080 ;    13.7363 ;   887.7791  ;     0.8416 ;    0.4929 ;   -0.2206
  -62.2091 ;    13.9088 ;   887.7793  ;     0.8412 ;    0.4936 ;   -0.2209
  -62.3103 ;    14.0813 ;   887.7794  ;     0.8409 ;    0.4939 ;   -0.2213
  -62.4116 ;    14.2538 ;   887.7795  ;     0.8407 ;    0.4941 ;   -0.2216
  -62.5129 ;    14.4262 ;   887.7797  ;     0.8408 ;    0.4937 ;   -0.2219
  -62.6141 ;    14.5987 ;   887.7798  ;     0.8410 ;    0.4932 ;   -0.2223
  -62.7152 ;    14.7713 ;   887.7800  ;     0.8409 ;    0.4933 ;   -0.2226
  -62.8165 ;    14.9438 ;   887.7801  ;     0.8404 ;    0.4940 ;   -0.2230
  -62.9179 ;    15.1161 ;   887.7802  ;     0.8398 ;    0.4949 ;   -0.2233
  -63.0195 ;    15.2884 ;   887.7804  ;     0.8393 ;    0.4956 ;   -0.2236
  -63.1212 ;    15.4606 ;   887.7805  ;     0.8396 ;    0.4949 ;   -0.2240
  -63.2226 ;    15.6330 ;   887.7807  ;     0.8407 ;    0.4929 ;   -0.2243
  -63.3234 ;    15.8057 ;   887.7808  ;     0.8414 ;    0.4915 ;   -0.2246
  -63.4243 ;    15.9785 ;   887.7810  ;     0.8414 ;    0.4913 ;   -0.2250
  -63.5251 ;    16.1512 ;   887.7811  ;     0.8414 ;    0.4912 ;   -0.2253
  -63.6258 ;    16.3239 ;   887.7812  ;     0.8418 ;    0.4903 ;   -0.2257
  -63.7264 ;    16.4969 ;   887.7814  ;     0.8425 ;    0.4889 ;   -0.2260
  -63.8266 ;    16.6699 ;   887.7815  ;     0.8428 ;    0.4883 ;   -0.2263
  -63.9268 ;    16.8430 ;   887.7817  ;     0.8423 ;    0.4890 ;   -0.2267
  -64.0274 ;    17.0159 ;   887.7818  ;     0.8416 ;    0.4900 ;   -0.2270
  -64.1280 ;    17.1887 ;   887.7819  ;     0.8416 ;    0.4899 ;   -0.2274
  -64.2285 ;    17.3616 ;   887.7821  ;     0.8422 ;    0.4886 ;   -0.2277
  -64.3287 ;    17.5347 ;   887.7822  ;     0.8427 ;    0.4878 ;   -0.2280
  -64.4289 ;    17.7078 ;   887.7824  ;     0.8425 ;    0.4878 ;   -0.2284
  -64.5291 ;    17.8809 ;   887.7825  ;     0.8420 ;    0.4885 ;   -0.2287
  -64.6295 ;    18.0539 ;   887.7826  ;     0.8416 ;    0.4891 ;   -0.2291
  -64.7300 ;    18.2268 ;   887.7828  ;     0.8419 ;    0.4885 ;   -0.2294
  -64.8302 ;    18.3999 ;   887.7829  ;     0.8427 ;    0.4869 ;   -0.2298
  -64.9301 ;    18.5731 ;   887.7831  ;     0.8432 ;    0.4859 ;   -0.2301
  -65.0300 ;    18.7464 ;   887.7832  ;     0.8425 ;    0.4870 ;   -0.2304
  -65.1302 ;    18.9195 ;   887.7833  ;     0.8409 ;    0.4895 ;   -0.2308
  -65.2311 ;    19.0922 ;   887.7835  ;     0.8408 ;    0.4896 ;   -0.2311
  -65.3314 ;    19.2652 ;   887.7836  ;     0.8427 ;    0.4860 ;   -0.2315
  -65.4309 ;    19.4387 ;   887.7838  ;     0.8439 ;    0.4838 ;   -0.2318
  -65.5303 ;    19.6122 ;   887.7839  ;     0.8425 ;    0.4861 ;   -0.2321
  -65.6307 ;    19.7852 ;   887.7840  ;     0.8409 ;    0.4887 ;   -0.2325
  -65.7312 ;    19.9581 ;   887.7842  ;     0.8416 ;    0.4873 ;   -0.2328
  -65.8310 ;    20.1315 ;   887.7843  ;     0.8439 ;    0.4832 ;   -0.2332
  -65.9300 ;    20.3053 ;   887.7845  ;     0.8455 ;    0.4803 ;   -0.2335
  -66.0286 ;    20.4792 ;   887.7846  ;     0.8446 ;    0.4817 ;   -0.2338
  -66.1281 ;    20.6527 ;   887.7847  ;     0.8424 ;    0.4854 ;   -0.2342
  -66.2283 ;    20.8259 ;   887.7849  ;     0.8419 ;    0.4859 ;   -0.2345
  -66.3280 ;    20.9992 ;   887.7850  ;     0.8434 ;    0.4833 ;   -0.2349
  -66.4270 ;    21.1730 ;   887.7852  ;     0.8443 ;    0.4815 ;   -0.2352
  -66.5262 ;    21.3467 ;   887.7853  ;     0.8437 ;    0.4824 ;   -0.2355
  -66.6255 ;    21.5202 ;   887.7854  ;     0.8425 ;    0.4843 ;   -0.2359
  -66.7254 ;    21.6935 ;   887.7856  ;     0.8423 ;    0.4846 ;   -0.2362
  -66.8249 ;    21.8670 ;   887.7857  ;     0.8436 ;    0.4821 ;   -0.2366
  -66.9238 ;    22.0408 ;   887.7859  ;     0.8452 ;    0.4791 ;   -0.2369
  -67.0222 ;    22.2150 ;   887.7860  ;     0.8449 ;    0.4795 ;   -0.2372
  -67.1212 ;    22.3888 ;   887.7861  ;     0.8430 ;    0.4826 ;   -0.2376
  -67.2208 ;    22.5622 ;   887.7863  ;     0.8428 ;    0.4828 ;   -0.2379
  -67.3199 ;    22.7359 ;   887.7864  ;     0.8448 ;    0.4792 ;   -0.2383
  -67.4181 ;    22.9101 ;   887.7866  ;     0.8465 ;    0.4759 ;   -0.2386
  -67.5159 ;    23.0846 ;   887.7867  ;     0.8463 ;    0.4761 ;   -0.2389
  -67.6142 ;    23.2588 ;   887.7869  ;     0.8450 ;    0.4783 ;   -0.2393
  -67.7129 ;    23.4327 ;   887.7870  ;     0.8448 ;    0.4784 ;   -0.2396
  -67.8112 ;    23.6069 ;   887.7871  ;     0.8462 ;    0.4758 ;   -0.2399
  -67.9089 ;    23.7814 ;   887.7873  ;     0.8468 ;    0.4745 ;   -0.2403
  -68.0067 ;    23.9559 ;   887.7874  ;     0.8460 ;    0.4758 ;   -0.2406
  -68.1049 ;    24.1301 ;   887.7876  ;     0.8457 ;    0.4761 ;   -0.2409
  -68.2029 ;    24.3044 ;   887.7877  ;     0.8465 ;    0.4746 ;   -0.2413
  -68.3005 ;    24.4790 ;   887.7878  ;     0.8468 ;    0.4738 ;   -0.2416
  -68.3981 ;    24.6536 ;   887.7880  ;     0.8458 ;    0.4755 ;   -0.2420
  -68.4965 ;    24.8277 ;   887.7881  ;     0.8451 ;    0.4766 ;   -0.2423
  -68.5946 ;    25.0020 ;   887.7883  ;     0.8460 ;    0.4748 ;   -0.2426
  -68.6922 ;    25.1766 ;   887.7884  ;     0.8464 ;    0.4738 ;   -0.2430
  -68.7899 ;    25.3511 ;   887.7885  ;     0.8456 ;    0.4752 ;   -0.2433
  -68.8881 ;    25.5253 ;   887.7887  ;     0.8452 ;    0.4757 ;   -0.2436
  -68.9860 ;    25.6997 ;   887.7888  ;     0.8461 ;    0.4739 ;   -0.2440
  -69.0834 ;    25.8744 ;   887.7890  ;     0.8473 ;    0.4715 ;   -0.2443
  -69.1804 ;    26.0493 ;   887.7891  ;     0.8479 ;    0.4704 ;   -0.2446
  -69.2774 ;    26.2242 ;   887.7893  ;     0.8482 ;    0.4696 ;   -0.2450
  -69.3741 ;    26.3992 ;   887.7894  ;     0.8492 ;    0.4677 ;   -0.2453
  -69.4704 ;    26.5746 ;   887.7895  ;     0.8501 ;    0.4658 ;   -0.2456
  -69.5663 ;    26.7500 ;   887.7897  ;     0.8500 ;    0.4658 ;   -0.2459
  -69.6626 ;    26.9254 ;   887.7898  ;     0.8491 ;    0.4674 ;   -0.2463
  -69.7592 ;    27.1005 ;   887.7900  ;     0.8482 ;    0.4687 ;   -0.2466
  -69.8560 ;    27.2755 ;   887.7901  ;     0.8475 ;    0.4699 ;   -0.2469
  -69.9531 ;    27.4503 ;   887.7902  ;     0.8462 ;    0.4720 ;   -0.2473
  -70.0507 ;    27.6249 ;   887.7904  ;     0.8451 ;    0.4738 ;   -0.2476
